0.774815 -0.407812 -7.026630 
0.824332 0.208703 -7.194223 
0.830678 0.200423 -7.214678 
0.822090 0.191711 -7.185384 
0.820751 0.189319 -7.181958 
0.816552 0.185906 -7.169421 
0.816477 0.168221 -7.168716 
0.834349 0.169752 -7.225460 
0.811789 0.163294 -7.152209 
0.836063 0.164749 -7.230372 
0.809393 0.152018 -7.143677 
0.809511 0.140813 -7.143768 
0.809556 0.135211 -7.143849 
0.839124 0.118411 -7.236941 
0.840206 0.113152 -7.242131 
0.804798 0.079178 -7.127882 
0.843287 0.061243 -7.249032 
0.843372 0.045427 -7.249840 
0.799994 0.012144 -7.112442 
0.842855 0.013877 -7.246351 
0.800325 0.006573 -7.111810 
0.798086 -0.032433 -7.103877 
0.795603 -0.071394 -7.096546 
0.795747 -0.076964 -7.096368 
0.795778 -0.082543 -7.096465 
0.795744 -0.088129 -7.096721 
0.795991 -0.099271 -7.096461 
0.793800 -0.132538 -7.088235 
0.793916 -0.138103 -7.088121 
0.791199 -0.160220 -7.080849 
0.791511 -0.176904 -7.080592 
0.791723 -0.188025 -7.080405 
0.786708 -0.226484 -7.064719 
0.786993 -0.232007 -7.064191 
0.787184 -0.259799 -7.064532 
0.787088 -0.282074 -7.065400 
0.782696 -0.370176 -7.049638 
0.828479 0.205605 -7.204666 
0.824833 0.203064 -7.193169 
0.827113 0.200338 -7.200161 
0.822410 0.197329 -7.184385 
0.829105 0.195451 -7.204941 
0.825585 0.189827 -7.195977 
0.819671 0.185991 -7.176615 
0.827569 0.184932 -7.200763 
0.817256 0.180282 -7.167862 
0.829004 0.179848 -7.205771 
0.814435 0.174587 -7.160145 
0.817346 0.174666 -7.167836 
0.832285 0.175009 -7.215366 
0.817435 0.169051 -7.167809 
0.819940 0.169128 -7.176535 
0.817641 0.163413 -7.168510 
0.812206 0.157686 -7.151369 
0.836954 0.159844 -7.230284 
0.809482 0.146416 -7.143650 
0.837082 0.149460 -7.230778 
0.834897 0.139042 -7.221526 
0.838864 0.139245 -7.235946 
0.809688 0.129609 -7.143713 
0.809922 0.118404 -7.143514 
0.807532 0.101579 -7.135170 
0.844359 0.098070 -7.251994 
0.841868 0.092742 -7.242567 
0.840046 0.081983 -7.238500 
0.839282 0.076856 -7.233723 
0.843616 0.071908 -7.248336 
0.843810 0.066706 -7.248538 
0.805275 0.051212 -7.127634 
0.802950 0.034474 -7.119165 
0.843306 0.019349 -7.245887 
0.800779 0.001010 -7.110876 
0.800864 -0.004573 -7.110847 
0.800744 -0.010170 -7.111321 
0.798282 -0.038004 -7.103574 
0.798674 -0.043560 -7.102792 
0.844667 -0.054733 -7.249265 
0.796476 -0.104805 -7.095448 
0.794305 -0.143637 -7.087341 
0.791986 -0.182417 -7.079601 
0.787072 -0.237559 -7.064160 
0.790279 -0.282290 -7.072146 
0.790264 -0.304567 -7.072815 
0.787789 -0.332030 -7.065112 
0.785725 -0.359362 -7.056427 
0.830682 0.200792 -7.209361 
0.827724 0.195359 -7.200179 
0.819058 0.184304 -7.172263 
0.819392 0.179225 -7.172382 
0.830167 0.175044 -7.205569 
0.814934 0.168973 -7.159099 
0.831406 0.169888 -7.210660 
0.834352 0.170131 -7.220130 
0.815023 0.163363 -7.159072 
0.817934 0.163433 -7.166761 
0.835900 0.165074 -7.225105 
0.815112 0.157752 -7.159045 
0.820528 0.157885 -7.175457 
0.812705 0.152080 -7.150325 
0.818112 0.152203 -7.166707 
0.834729 0.147274 -7.219542 
0.838249 0.144643 -7.230579 
0.812882 0.140868 -7.150271 
0.837038 0.139392 -7.226002 
0.812970 0.135263 -7.150244 
0.837406 0.123836 -7.226668 
0.840243 0.113562 -7.236763 
0.841740 0.108447 -7.241785 
0.843463 0.103406 -7.246718 
0.808044 0.095991 -7.134094 
0.840957 0.098076 -7.237301 
0.808281 0.090398 -7.133698 
0.805510 0.073604 -7.126315 
0.805631 0.068012 -7.126203 
0.805761 0.062422 -7.126067 
0.805906 0.056832 -7.125894 
0.844967 0.051290 -7.248907 
0.806020 0.045645 -7.125982 
0.801238 -0.015727 -7.110287 
0.796800 -0.110354 -7.094829 
0.797088 -0.115906 -7.094295 
0.797195 -0.121475 -7.094204 
0.794865 -0.149149 -7.086144 
0.792309 -0.193521 -7.079145 
0.792530 -0.199064 -7.078772 
0.790015 -0.209944 -7.070695 
0.790187 -0.248894 -7.071412 
0.790276 -0.254449 -7.071358 
0.790810 -0.310038 -7.071645 
0.790966 -0.315578 -7.071423 
0.788481 -0.337463 -7.063589 
0.783511 -0.375564 -7.047823 
0.781224 -0.386203 -7.039268 
0.778606 -0.402432 -7.031681 
0.775999 -0.413096 -7.023941 
0.830136 0.200978 -7.204267 
0.822906 0.184853 -7.181363 
0.829008 0.180224 -7.200451 
0.821987 0.169334 -7.177176 
0.833896 0.170354 -7.214987 
0.831118 0.164965 -7.205717 
0.827879 0.159416 -7.196624 
0.813203 0.146475 -7.149282 
0.835496 0.144469 -7.221015 
0.815993 0.140922 -7.157436 
0.816081 0.135313 -7.157409 
0.836360 0.134323 -7.221207 
0.813468 0.129661 -7.149200 
0.810830 0.112815 -7.141458 
0.842901 0.098360 -7.241868 
0.844426 0.093244 -7.246885 
0.844628 0.077537 -7.247643 
0.806574 0.040074 -7.124800 
0.803753 0.028920 -7.117373 
0.804145 0.023348 -7.116589 
0.804026 0.017751 -7.117064 
0.804111 0.012165 -7.117035 
0.804278 0.006583 -7.116805 
0.801956 -0.021267 -7.108704 
0.799329 -0.049094 -7.101365 
0.797755 -0.126996 -7.093006 
0.795220 -0.154684 -7.085448 
0.790369 -0.215462 -7.070000 
0.790802 -0.226533 -7.069275 
0.790676 -0.232118 -7.069741 
0.790835 -0.243227 -7.069679 
0.792418 -0.278431 -7.073698 
0.826357 0.197408 -7.189547 
0.826324 0.191783 -7.189828 
0.822421 0.179871 -7.176500 
0.831331 0.170240 -7.205368 
0.833044 0.165241 -7.210270 
0.830026 0.159768 -7.201092 
0.837783 0.160508 -7.224617 
0.839527 0.139863 -7.230335 
0.836817 0.130805 -7.221955 
0.836792 0.129246 -7.221303 
0.813761 0.124058 -7.148665 
0.839954 0.119096 -7.231256 
0.838640 0.113795 -7.226713 
0.811532 0.107225 -7.139910 
0.841575 0.108788 -7.236498 
0.843463 0.103807 -7.241361 
0.845021 0.098707 -7.246362 
0.808777 0.084813 -7.132659 
0.841045 0.072220 -7.233284 
0.845170 0.035925 -7.244287 
0.845307 0.025385 -7.244791 
0.844282 0.009527 -7.240663 
0.804486 0.001004 -7.116474 
0.804571 -0.004582 -7.116446 
0.844607 -0.006292 -7.241366 
0.802431 -0.026821 -7.107715 
0.799870 -0.054634 -7.100214 
0.799964 -0.060209 -7.100160 
0.800060 -0.065784 -7.100100 
0.800355 -0.082507 -7.099898 
0.800099 -0.093698 -7.100871 
0.798145 -0.132533 -7.092225 
0.798260 -0.138100 -7.092111 
0.795574 -0.160217 -7.084752 
0.795581 -0.165792 -7.084903 
0.795885 -0.171329 -7.084327 
0.793348 -0.204524 -7.076946 
0.790995 -0.220938 -7.068643 
0.791124 -0.237617 -7.068815 
0.791277 -0.259858 -7.069087 
0.788575 -0.265140 -7.061321 
0.788982 -0.270635 -7.060496 
0.791932 -0.320969 -7.069234 
0.784326 -0.380950 -7.046010 
0.782114 -0.397109 -7.037426 
0.777059 -0.418401 -7.021550 
0.774462 -0.423505 -7.013664 
0.771607 -0.429903 -7.004290 
0.829578 0.191871 -7.196742 
0.823031 0.174884 -7.176512 
0.830233 0.170245 -7.200486 
0.826806 0.169272 -7.189414 
0.823150 0.164528 -7.176970 
0.827100 0.163643 -7.188873 
0.838738 0.150414 -7.224773 
0.835562 0.139659 -7.215922 
0.839127 0.119202 -7.226244 
0.840914 0.108954 -7.231415 
0.841046 0.098510 -7.231910 
0.809274 0.079229 -7.131619 
0.809565 0.073641 -7.131086 
0.844696 0.072705 -7.242528 
0.809652 0.068046 -7.131058 
0.809738 0.062452 -7.131030 
0.845285 0.057102 -7.243124 
0.809823 0.051261 -7.131190 
0.807315 0.034513 -7.123157 
0.844339 0.036044 -7.239249 
0.844611 0.014955 -7.240251 
0.805024 -0.010145 -7.115510 
0.802720 -0.032387 -7.107183 
0.802804 -0.037967 -7.107154 
0.800287 -0.071348 -7.099719 
0.800404 -0.076920 -7.099606 
0.800451 -0.088081 -7.099835 
0.800651 -0.099229 -7.099692 
0.796413 -0.176837 -7.083207 
0.789788 -0.342776 -7.060576 
0.779707 -0.407738 -7.029185 
0.772115 -0.428546 -7.005205 
0.825171 0.180424 -7.180724 
0.829625 0.175612 -7.195151 
0.827001 0.165080 -7.186078 
0.833000 0.160401 -7.205229 
0.824675 0.157949 -7.180099 
0.839334 0.155830 -7.224261 
0.822255 0.152265 -7.171341 
0.827688 0.152389 -7.187793 
0.817133 0.146535 -7.154410 
0.827776 0.146763 -7.187766 
0.819927 0.140980 -7.162573 
0.827865 0.141137 -7.187738 
0.830195 0.139358 -7.196745 
0.820016 0.135369 -7.162546 
0.836791 0.134862 -7.215697 
0.817398 0.129714 -7.154329 
0.828043 0.129884 -7.187684 
0.838365 0.129194 -7.220718 
0.838071 0.124461 -7.221057 
0.814814 0.118467 -7.146244 
0.840252 0.109120 -7.226335 
0.812438 0.101642 -7.137856 
0.812576 0.090446 -7.137890 
0.841908 0.083054 -7.232384 
0.842689 0.067541 -7.232892 
0.809947 0.056863 -7.130699 
0.810304 0.045683 -7.130188 
0.845841 0.046743 -7.243455 
0.847872 0.041776 -7.248282 
0.807769 0.028941 -7.122221 
0.803122 -0.043530 -7.106551 
0.848079 -0.058780 -7.248153 
0.801125 -0.104765 -7.098705 
0.798888 -0.143607 -7.090746 
0.796881 -0.182351 -7.082232 
0.796622 -0.187958 -7.083029 
0.794166 -0.209980 -7.075121 
0.792380 -0.265246 -7.066569 
0.792254 -0.270831 -7.067035 
0.789470 -0.276115 -7.059472 
0.794984 -0.282253 -7.075226 
0.794945 -0.287828 -7.075479 
0.792623 -0.326407 -7.067710 
0.787647 -0.364538 -7.051935 
0.782881 -0.391403 -7.035429 
0.779928 -0.412115 -7.026175 
0.777708 -0.423793 -7.020141 
0.825783 0.175439 -7.180737 
0.826118 0.170357 -7.180859 
0.826179 0.165179 -7.181089 
0.824424 0.159759 -7.176722 
0.837785 0.160890 -7.219286 
0.830729 0.158081 -7.195039 
0.830423 0.155077 -7.195873 
0.836705 0.155696 -7.214661 
0.825173 0.152327 -7.179048 
0.830614 0.152451 -7.195526 
0.836691 0.150481 -7.214934 
0.820248 0.146593 -7.161581 
0.822752 0.146649 -7.170292 
0.837153 0.145425 -7.215016 
0.822841 0.141034 -7.170265 
0.822930 0.135418 -7.170238 
0.830013 0.134463 -7.191751 
0.823018 0.129802 -7.170210 
0.825528 0.129843 -7.178939 
0.817690 0.124110 -7.153793 
0.818130 0.123015 -7.154356 
0.838830 0.119493 -7.221022 
0.815369 0.112872 -7.145057 
0.815457 0.107270 -7.145029 
0.812566 0.096045 -7.137727 
0.841113 0.093686 -7.226804 
0.841245 0.083225 -7.227295 
0.841378 0.072749 -7.227787 
0.844763 0.067874 -7.237413 
0.846627 0.052309 -7.242856 
0.845637 0.041805 -7.238444 
0.845238 0.031081 -7.239161 
0.808105 0.023365 -7.121574 
0.808145 0.017774 -7.121659 
0.808230 0.012186 -7.121630 
0.844402 0.010003 -7.235230 
0.808374 0.006601 -7.121458 
0.808502 0.001015 -7.121321 
0.844538 -0.000566 -7.235729 
0.808621 -0.004570 -7.121208 
0.806091 -0.015666 -7.113066 
0.846757 -0.021455 -7.241327 
0.803550 -0.049082 -7.105678 
0.845808 -0.064094 -7.238544 
0.845425 -0.098147 -7.236631 
0.801537 -0.110305 -7.097865 
0.801568 -0.115884 -7.097961 
0.801678 -0.121454 -7.097863 
0.799433 -0.149122 -7.089583 
0.799597 -0.154679 -7.089352 
0.797185 -0.193456 -7.081821 
0.794812 -0.232162 -7.074200 
0.795005 -0.243270 -7.074054 
0.795097 -0.248824 -7.073992 
0.795300 -0.276631 -7.074297 
0.795228 -0.293348 -7.074948 
0.795429 -0.298882 -7.074618 
0.795589 -0.304422 -7.074386 
0.790479 -0.348202 -7.059055 
0.788337 -0.369953 -7.050416 
0.827706 0.175714 -7.185287 
0.827767 0.170539 -7.185519 
0.826736 0.160167 -7.181124 
0.834275 0.155630 -7.204983 
0.836264 0.150718 -7.209777 
0.836053 0.145433 -7.210127 
0.827311 0.139524 -7.181917 
0.833318 0.134828 -7.201091 
0.820513 0.129761 -7.161499 
0.821818 0.128739 -7.163304 
0.829086 0.129308 -7.187051 
0.820601 0.124150 -7.161472 
0.829147 0.124104 -7.187284 
0.839732 0.114574 -7.220928 
0.818363 0.107297 -7.152694 
0.815953 0.101677 -7.143987 
0.813197 0.084863 -7.136543 
0.839036 0.083252 -7.217479 
0.813400 0.079269 -7.136226 
0.842141 0.078285 -7.227206 
0.813282 0.073667 -7.136704 
0.813369 0.068070 -7.136676 
0.842551 0.067904 -7.227586 
0.813456 0.062474 -7.136648 
0.842697 0.062688 -7.227801 
0.843989 0.062219 -7.233664 
0.845095 0.058498 -7.236589 
0.845960 0.047206 -7.238035 
0.811106 0.040121 -7.128391 
0.811274 0.034533 -7.128160 
0.844969 0.004905 -7.235277 
0.845717 -0.005442 -7.235527 
0.804079 -0.054625 -7.104556 
0.804285 -0.060192 -7.104225 
0.848148 -0.063652 -7.242998 
0.804246 -0.065780 -7.104497 
0.847103 -0.068953 -7.238296 
0.802242 -0.126975 -7.096652 
0.799951 -0.160213 -7.088655 
0.800056 -0.165777 -7.088564 
0.797879 -0.198935 -7.080294 
0.795010 -0.215430 -7.073231 
0.795363 -0.220946 -7.072536 
0.795247 -0.226530 -7.072979 
0.795465 -0.237632 -7.072774 
0.795702 -0.254297 -7.072680 
0.781012 -0.412994 -7.026201 
0.834950 0.207924 -7.206541 
0.830820 0.150387 -7.190654 
0.829514 0.139897 -7.186367 
0.830613 0.139889 -7.191254 
0.828035 0.134555 -7.181887 
0.827986 0.129317 -7.182161 
0.834043 0.129856 -7.201064 
0.820652 0.123500 -7.158690 
0.818597 0.118514 -7.151732 
0.838894 0.119910 -7.215656 
0.840916 0.109751 -7.220721 
0.818860 0.101700 -7.151649 
0.842703 0.099496 -7.225889 
0.816041 0.096076 -7.143960 
0.839523 0.088679 -7.217014 
0.841446 0.067919 -7.222674 
0.846490 0.063225 -7.236989 
0.813910 0.056891 -7.135709 
0.814242 0.051305 -7.135074 
0.846165 0.052560 -7.237675 
0.811686 0.028957 -7.127324 
0.845306 0.026237 -7.234035 
0.844470 0.005153 -7.230097 
0.809470 -0.010110 -7.119298 
0.846410 -0.015820 -7.235799 
0.806856 -0.021203 -7.111365 
0.807129 -0.026771 -7.110872 
0.807226 -0.037938 -7.110988 
0.804700 -0.082493 -7.103906 
0.804885 -0.088060 -7.103626 
0.847660 -0.090192 -7.239184 
0.804967 -0.093636 -7.103596 
0.800583 -0.171287 -7.087443 
0.796190 -0.259786 -7.071653 
0.789150 -0.375340 -7.048603 
0.783910 -0.402270 -7.033252 
0.834478 0.158146 -7.200723 
0.833132 0.150796 -7.195056 
0.834121 0.150751 -7.199984 
0.836459 0.135525 -7.205166 
0.826154 0.129462 -7.172240 
0.834769 0.124883 -7.201037 
0.821423 0.118541 -7.158637 
0.820185 0.113273 -7.154047 
0.821601 0.107330 -7.159555 
0.840220 0.099423 -7.216197 
0.819274 0.096102 -7.150809 
0.816537 0.090486 -7.142918 
0.816901 0.084894 -7.142202 
0.841865 0.078595 -7.221962 
0.817002 0.073693 -7.142327 
0.845728 0.058093 -7.232210 
0.844369 0.047467 -7.227944 
0.845603 0.042213 -7.233087 
0.845713 0.036968 -7.233318 
0.845807 0.031714 -7.233556 
0.846206 0.021272 -7.233946 
0.812351 0.012207 -7.126228 
0.846896 -0.010318 -7.235325 
0.848493 -0.026130 -7.240900 
0.807281 -0.032348 -7.110674 
0.807412 -0.043512 -7.110707 
0.807784 -0.054656 -7.110146 
0.805079 -0.071292 -7.102628 
0.805170 -0.076867 -7.102578 
0.805546 -0.099164 -7.102350 
0.802967 -0.132476 -7.095047 
0.801110 -0.176795 -7.086322 
0.798441 -0.204429 -7.079087 
0.796432 -0.265313 -7.071224 
0.796347 -0.270892 -7.071590 
0.796689 -0.309793 -7.071865 
0.796767 -0.315345 -7.071833 
0.794542 -0.331612 -7.063205 
0.776995 -0.428471 -7.007754 
0.823687 0.146085 -7.163649 
0.832206 0.145651 -7.190363 
0.838386 0.135803 -7.209724 
0.827852 0.129660 -7.176892 
0.826400 0.124324 -7.172396 
0.826737 0.119214 -7.172515 
0.825606 0.113983 -7.167889 
0.822115 0.113553 -7.158614 
0.840699 0.110073 -7.215466 
0.842085 0.104922 -7.220520 
0.841014 0.094457 -7.216146 
0.839590 0.083855 -7.211907 
0.817095 0.079298 -7.141909 
0.842485 0.073556 -7.221984 
0.817211 0.068098 -7.141995 
0.817379 0.062502 -7.141764 
0.841513 0.063088 -7.217561 
0.844966 0.052960 -7.227430 
0.846072 0.052944 -7.232346 
0.814853 0.045731 -7.133745 
0.815149 0.040146 -7.133196 
0.815113 0.034547 -7.133471 
0.815198 0.028953 -7.133443 
0.812589 0.023407 -7.125276 
0.812511 0.017809 -7.125651 
0.812612 0.006627 -7.125767 
0.812828 0.001045 -7.125414 
0.845648 0.000281 -7.229895 
0.846340 -0.010088 -7.230165 
0.810290 -0.015648 -7.117455 
0.847590 -0.020701 -7.235597 
0.807905 -0.049060 -7.109673 
0.808235 -0.060206 -7.109212 
0.808155 -0.065799 -7.109584 
0.805817 -0.104720 -7.101858 
0.806071 -0.110277 -7.101404 
0.806094 -0.115857 -7.101520 
0.806036 -0.121446 -7.101833 
0.803662 -0.137977 -7.093515 
0.803762 -0.143543 -7.093440 
0.803866 -0.149110 -7.093355 
0.803974 -0.154675 -7.093257 
0.801433 -0.182328 -7.085701 
0.801513 -0.187891 -7.085670 
0.799164 -0.209898 -7.077490 
0.797457 -0.320784 -7.070307 
0.794619 -0.337157 -7.063173 
0.792274 -0.353410 -7.054858 
0.782315 -0.418245 -7.023218 
0.835507 0.146016 -7.199694 
0.822867 0.134335 -7.159555 
0.839475 0.130959 -7.209554 
0.829219 0.119686 -7.176861 
0.819910 0.112928 -7.148657 
0.823388 0.108765 -7.158364 
0.839880 0.104945 -7.210723 
0.840983 0.104934 -7.215621 
0.822792 0.101743 -7.156779 
0.841492 0.102486 -7.216275 
0.842770 0.094676 -7.220785 
0.841977 0.079043 -7.216566 
0.837652 0.073465 -7.202520 
0.842276 0.068628 -7.216984 
0.845932 0.042753 -7.227586 
0.847937 0.016611 -7.233520 
0.813219 -0.004525 -7.124628 
0.846826 -0.004592 -7.229693 
0.813508 -0.010101 -7.124095 
0.848770 -0.025582 -7.235395 
0.848868 -0.041542 -7.236187 
0.848215 -0.068067 -7.232439 
0.808647 -0.071343 -7.108550 
0.806585 -0.126969 -7.100657 
0.804328 -0.160210 -7.092560 
0.802070 -0.193391 -7.084475 
0.799607 -0.226540 -7.076898 
0.799564 -0.232115 -7.077166 
0.799817 -0.237646 -7.076711 
0.799913 -0.243199 -7.076638 
0.800031 -0.276590 -7.077312 
0.795309 -0.342585 -7.061651 
0.792678 -0.358885 -7.054033 
0.787759 -0.385789 -7.037879 
0.835735 0.208778 -7.198775 
0.840650 0.155639 -7.213600 
0.828180 0.114488 -7.172201 
0.825734 0.112991 -7.164006 
0.825488 0.109105 -7.162864 
0.840498 0.099922 -7.210742 
0.840772 0.094775 -7.210899 
0.820668 0.090530 -7.147532 
0.840549 0.089447 -7.211256 
0.820636 0.084925 -7.147800 
0.839658 0.079031 -7.206800 
0.820929 0.073726 -7.147448 
0.841115 0.068623 -7.212098 
0.818283 0.056934 -7.139709 
0.845727 0.058509 -7.226848 
0.845033 0.048126 -7.222313 
0.846584 0.032422 -7.227870 
0.846855 0.027231 -7.228034 
0.847519 -0.014965 -7.229962 
0.811110 -0.021183 -7.115613 
0.849465 -0.035980 -7.235667 
0.811240 -0.037940 -7.115828 
0.811446 -0.043513 -7.115497 
0.811753 -0.054667 -7.115093 
0.848337 -0.062668 -7.232113 
0.809138 -0.076885 -7.107515 
0.809221 -0.082462 -7.107486 
0.809202 -0.088049 -7.107707 
0.851075 -0.094234 -7.238074 
0.804755 -0.165735 -7.091681 
0.802228 -0.198942 -7.084253 
0.799875 -0.215366 -7.075919 
0.799977 -0.220919 -7.075833 
0.800220 -0.270990 -7.076692 
0.800294 -0.282114 -7.076832 
0.800328 -0.287676 -7.076907 
0.798148 -0.326220 -7.068783 
0.790944 -0.380523 -7.044417 
0.788244 -0.391231 -7.036859 
0.788115 -0.396801 -7.037320 
0.785704 -0.407425 -7.029083 
0.835510 0.146402 -7.194371 
0.830523 0.114912 -7.176601 
0.827220 0.109316 -7.167507 
0.826230 0.107388 -7.162959 
0.823247 0.093400 -7.153837 
0.823666 0.084939 -7.155170 
0.821250 0.079339 -7.146461 
0.823753 0.079333 -7.155142 
0.821179 0.068130 -7.147014 
0.840342 0.068757 -7.207057 
0.842343 0.063800 -7.211873 
0.844898 0.058624 -7.221824 
0.818879 0.051357 -7.138415 
0.844203 0.048243 -7.217287 
0.819113 0.040168 -7.138207 
0.846830 0.037798 -7.227497 
0.818831 0.034556 -7.139090 
0.819121 0.028969 -7.138555 
0.816509 0.023421 -7.130382 
0.847367 0.022126 -7.228101 
0.816472 0.017823 -7.130656 
0.847659 0.016938 -7.228257 
0.816475 0.012228 -7.130829 
0.846271 -0.004363 -7.224537 
0.846894 -0.009443 -7.224558 
0.811872 -0.026718 -7.113913 
0.850061 -0.030423 -7.235147 
0.811964 -0.065827 -7.114926 
0.812003 -0.071412 -7.115005 
0.809503 -0.093606 -7.107139 
0.850237 -0.094094 -7.233003 
0.809878 -0.099154 -7.106392 
0.807484 -0.132452 -7.098622 
0.805282 -0.171245 -7.090559 
0.802775 -0.204439 -7.083081 
0.800401 -0.248692 -7.075611 
0.800752 -0.254203 -7.074915 
0.800773 -0.265333 -7.075184 
0.795604 -0.275840 -7.059059 
0.795999 -0.348010 -7.060130 
0.793572 -0.364260 -7.052020 
0.786270 -0.412840 -7.027869 
0.832259 0.115124 -7.181241 
0.829762 0.109810 -7.171831 
0.825002 0.104097 -7.157981 
0.825616 0.099076 -7.157989 
0.840223 0.100225 -7.205513 
0.824103 0.096163 -7.153700 
0.825677 0.093857 -7.158213 
0.826784 0.084954 -7.162338 
0.840735 0.084668 -7.206103 
0.826871 0.079345 -7.162311 
0.839648 0.079435 -7.201459 
0.824248 0.073740 -7.154097 
0.838068 0.074023 -7.197009 
0.839317 0.068800 -7.202119 
0.846071 0.053777 -7.221622 
0.819097 0.045767 -7.138062 
0.845931 0.043173 -7.222222 
0.846165 0.037977 -7.222400 
0.817228 0.035063 -7.131574 
0.819614 0.023394 -7.137514 
0.819700 0.017799 -7.137486 
0.816852 0.006653 -7.130079 
0.847311 0.001333 -7.223844 
0.814491 -0.015630 -7.121847 
0.848698 -0.019843 -7.229760 
0.849393 -0.030231 -7.230029 
0.811991 -0.032297 -7.113799 
0.849533 -0.040841 -7.230523 
0.812370 -0.049030 -7.113398 
0.812595 -0.060186 -7.113195 
0.810370 -0.121440 -7.105870 
0.807974 -0.137977 -7.097589 
0.808113 -0.143540 -7.097416 
0.808136 -0.149117 -7.097529 
0.805659 -0.176773 -7.089801 
0.801103 -0.259714 -7.074220 
0.793975 -0.369731 -7.051195 
0.789212 -0.402109 -7.034822 
0.784230 -0.423355 -7.018766 
0.776434 -0.444133 -6.995339 
0.776713 -0.449584 -6.994819 
0.831994 0.110196 -7.176276 
0.828751 0.104618 -7.167157 
0.827823 0.099453 -7.162448 
0.827470 0.094089 -7.162835 
0.848918 0.081412 -7.228273 
0.834343 0.073917 -7.182467 
0.824881 0.067728 -7.154430 
0.822245 0.062564 -7.144551 
0.844965 0.053793 -7.216711 
0.845101 0.043291 -7.217196 
0.847794 0.019267 -7.225308 
0.820193 0.012226 -7.136445 
0.848835 0.012073 -7.228055 
0.846396 0.007284 -7.220137 
0.817326 0.001085 -7.129088 
0.817721 -0.004486 -7.128290 
0.846616 -0.009110 -7.219292 
0.848184 -0.014277 -7.224310 
0.848142 -0.019611 -7.224601 
0.850296 -0.035219 -7.229939 
0.815154 -0.037948 -7.120924 
0.849118 -0.072616 -7.226947 
0.813048 -0.076908 -7.112604 
0.852650 -0.098991 -7.237711 
0.810543 -0.104672 -7.104928 
0.810778 -0.115814 -7.104696 
0.808276 -0.154679 -7.097355 
0.805991 -0.182305 -7.089155 
0.806191 -0.187853 -7.088830 
0.803671 -0.209885 -7.081055 
0.801573 -0.293029 -7.074029 
0.781875 -0.428397 -7.010303 
0.779523 -0.433428 -7.001855 
0.836178 0.211124 -7.190394 
0.831438 0.123009 -7.173122 
0.827761 0.104668 -7.162223 
0.829476 0.099637 -7.167123 
0.838911 0.095323 -7.195626 
0.826707 0.088978 -7.158058 
0.830300 0.084980 -7.168530 
0.834693 0.079296 -7.182071 
0.838135 0.069198 -7.191901 
0.842343 0.064213 -7.206522 
0.842687 0.059070 -7.206650 
0.842477 0.053726 -7.207000 
0.842821 0.048578 -7.207129 
0.842967 0.043355 -7.207336 
0.845999 0.038338 -7.217104 
0.822757 0.034574 -7.144207 
0.847451 0.033162 -7.222153 
0.822901 0.028978 -7.144033 
0.847935 0.028052 -7.222229 
0.823030 0.023382 -7.143896 
0.823116 0.017784 -7.143867 
0.818243 -0.010047 -7.127179 
0.847517 -0.014087 -7.219200 
0.815554 -0.021149 -7.119400 
0.815478 -0.032334 -7.119946 
0.815646 -0.043502 -7.119887 
0.849883 -0.066969 -7.226363 
0.813336 -0.082469 -7.112071 
0.813520 -0.088038 -7.111790 
0.852313 -0.098655 -7.232437 
0.810975 -0.110211 -7.104038 
0.811104 -0.126944 -7.104234 
0.808951 -0.160176 -7.095865 
0.806494 -0.193386 -7.088254 
0.806608 -0.198945 -7.088140 
0.804218 -0.215377 -7.079884 
0.804375 -0.220922 -7.079663 
0.804318 -0.226499 -7.079964 
0.802059 -0.298510 -7.073001 
0.802136 -0.304060 -7.072969 
0.800062 -0.331424 -7.064279 
0.797505 -0.353273 -7.056627 
0.787325 -0.418144 -7.025476 
0.845639 0.109712 -7.215544 
0.833322 0.105429 -7.176006 
0.831958 0.100112 -7.171473 
0.837744 0.100552 -7.190496 
0.832298 0.094993 -7.171591 
0.830202 0.094653 -7.167089 
0.825292 0.090586 -7.150929 
0.830845 0.089638 -7.167088 
0.828776 0.089308 -7.162573 
0.830808 0.079379 -7.167448 
0.838004 0.079663 -7.191432 
0.826482 0.073556 -7.153561 
0.825639 0.068178 -7.150817 
0.841989 0.064498 -7.201316 
0.823126 0.056995 -7.142546 
0.842268 0.048795 -7.201997 
0.823342 0.045803 -7.142381 
0.848413 0.022938 -7.222309 
0.848952 0.017844 -7.222363 
0.820986 0.006673 -7.134658 
0.848903 0.007229 -7.222928 
0.847379 -0.003515 -7.218713 
0.848252 -0.019129 -7.219175 
0.849328 -0.024486 -7.224395 
0.815802 -0.026722 -7.118968 
0.849943 -0.029579 -7.224420 
0.818580 -0.032400 -7.127063 
0.850016 -0.034878 -7.224664 
0.818664 -0.037987 -7.127034 
0.816341 -0.049038 -7.118347 
0.816221 -0.054637 -7.118821 
0.850575 -0.056010 -7.225533 
0.816504 -0.065793 -7.118474 
0.848769 -0.066941 -7.221416 
0.816471 -0.071385 -7.118732 
0.849328 -0.088152 -7.222283 
0.813909 -0.093588 -7.111006 
0.851308 -0.098580 -7.227436 
0.849295 -0.120243 -7.222010 
0.811594 -0.132473 -7.103200 
0.809455 -0.165692 -7.094797 
0.804618 -0.232024 -7.079396 
0.805154 -0.270915 -7.079214 
0.805213 -0.276473 -7.079227 
0.802622 -0.309537 -7.071942 
0.802903 -0.315050 -7.071413 
0.792857 -0.385672 -7.039941 
0.828991 0.134362 -7.160924 
0.842891 0.122818 -7.203636 
0.842777 0.117155 -7.204822 
0.836918 0.100661 -7.185494 
0.837259 0.095542 -7.185617 
0.832440 0.089801 -7.171788 
0.838768 0.085185 -7.190869 
0.828792 0.073792 -7.157701 
0.836066 0.069276 -7.182042 
0.840805 0.064484 -7.196443 
0.842135 0.059286 -7.201522 
0.842354 0.054097 -7.201698 
0.823450 0.051407 -7.141927 
0.826533 0.046642 -7.149822 
0.823486 0.040208 -7.142208 
0.845998 0.038759 -7.211745 
0.847726 0.033686 -7.216679 
0.846850 -0.013898 -7.214091 
0.850642 -0.039972 -7.224685 
0.816712 -0.060186 -7.117785 
0.849951 -0.071837 -7.221212 
0.816758 -0.076949 -7.118199 
0.814603 -0.099106 -7.109469 
0.853482 -0.103570 -7.232240 
0.812083 -0.137999 -7.102167 
0.812339 -0.143551 -7.101707 
0.809888 -0.171215 -7.093903 
0.807366 -0.204413 -7.086449 
0.805191 -0.237505 -7.078157 
0.805270 -0.243060 -7.078126 
0.805585 -0.265278 -7.078000 
0.803103 -0.320576 -7.071082 
0.800751 -0.336852 -7.062757 
0.800950 -0.342371 -7.062427 
0.795765 -0.374917 -7.047008 
0.790920 -0.407280 -7.030849 
0.780321 -0.437351 -6.997209 
0.834716 0.100684 -7.175711 
0.835056 0.095566 -7.175831 
0.837941 0.085296 -7.185863 
0.830560 0.079448 -7.162374 
0.829307 0.068903 -7.158034 
0.838387 0.064439 -7.186720 
0.828454 0.047958 -7.154024 
0.843441 0.043946 -7.201793 
0.845212 0.038894 -7.206703 
0.824322 0.012248 -7.141052 
0.850494 0.013117 -7.222013 
0.821790 0.001123 -7.132847 
0.822078 -0.004455 -7.132313 
0.847447 -0.008363 -7.213582 
0.819346 -0.015569 -7.124628 
0.847918 -0.018814 -7.213932 
0.819512 -0.021149 -7.124397 
0.851338 -0.050378 -7.224951 
0.851479 -0.061007 -7.225442 
0.850790 -0.092948 -7.221966 
0.852605 -0.103445 -7.227186 
0.815237 -0.121378 -7.108595 
0.815319 -0.126953 -7.108565 
0.812857 -0.149071 -7.100603 
0.810376 -0.176729 -7.092871 
0.805587 -0.248578 -7.077513 
0.805744 -0.259685 -7.077450 
0.798744 -0.358581 -7.053771 
0.793790 -0.391019 -7.037837 
0.781231 -0.438559 -6.997918 
0.836709 0.095749 -7.180506 
0.835396 0.090445 -7.175951 
0.833972 0.085099 -7.171439 
0.833044 0.079927 -7.166727 
0.828820 0.063881 -7.153142 
0.826703 0.062611 -7.148353 
0.827226 0.058459 -7.148681 
0.827156 0.057025 -7.147411 
0.842202 0.054458 -7.196411 
0.842577 0.049324 -7.196524 
0.840954 0.043880 -7.192084 
0.841297 0.038729 -7.192208 
0.827134 0.034613 -7.148211 
0.847725 0.034109 -7.211319 
0.841502 0.033525 -7.192388 
0.827150 0.029010 -7.148356 
0.849288 0.028974 -7.216320 
0.827366 0.023417 -7.148002 
0.849386 0.013137 -7.217092 
0.824814 0.006675 -7.140010 
0.847862 0.002406 -7.212876 
0.848485 -0.002667 -7.212895 
0.822163 -0.010046 -7.132284 
0.846960 -0.013419 -7.208673 
0.847029 -0.018707 -7.208913 
0.819719 -0.026726 -7.124065 
0.850472 -0.028935 -7.218823 
0.822500 -0.032406 -7.132167 
0.849231 -0.035116 -7.216713 
0.822584 -0.037996 -7.132138 
0.848973 -0.039710 -7.214587 
0.819848 -0.043491 -7.124280 
0.851933 -0.044814 -7.224436 
0.820054 -0.049067 -7.123948 
0.820341 -0.054635 -7.123415 
0.852526 -0.076655 -7.225842 
0.817801 -0.082444 -7.115797 
0.817884 -0.088023 -7.115767 
0.851417 -0.098070 -7.221986 
0.851488 -0.103413 -7.222231 
0.815459 -0.104604 -7.107530 
0.854628 -0.108496 -7.232052 
0.854978 -0.113736 -7.232187 
0.815419 -0.115775 -7.107974 
0.854510 -0.161994 -7.229452 
0.810808 -0.182248 -7.091977 
0.808424 -0.209837 -7.084022 
0.806011 -0.254077 -7.076636 
0.806329 -0.281853 -7.076659 
0.794232 -0.396466 -7.036917 
0.794430 -0.401964 -7.036589 
0.789114 -0.423280 -7.021317 
0.781714 -0.443965 -6.996909 
0.834699 0.080110 -7.171405 
0.831867 0.074663 -7.162112 
0.832345 0.069581 -7.162174 
0.830587 0.064104 -7.157782 
0.830982 0.058986 -7.157875 
0.829531 0.053614 -7.153358 
0.827842 0.053418 -7.148686 
0.830943 0.048442 -7.158387 
0.827329 0.045827 -7.147355 
0.827415 0.040229 -7.147326 
0.845168 0.039298 -7.201367 
0.846391 0.034044 -7.206498 
0.846963 0.028970 -7.206534 
0.846479 0.023506 -7.206995 
0.827670 0.017829 -7.147429 
0.828046 0.012246 -7.146676 
0.848900 0.008091 -7.212190 
0.847696 -0.007833 -7.208111 
0.850983 -0.023421 -7.218346 
0.822823 -0.026788 -7.131186 
0.851124 -0.034013 -7.218832 
0.849931 -0.044678 -7.214472 
0.848573 -0.046687 -7.210391 
0.851406 -0.055239 -7.219807 
0.849879 -0.066058 -7.215575 
0.820591 -0.071388 -7.123326 
0.820674 -0.076973 -7.123296 
0.851327 -0.079926 -7.218168 
0.818106 -0.093590 -7.115392 
0.850859 -0.097822 -7.216808 
0.818515 -0.099137 -7.114557 
0.854346 -0.108136 -7.226756 
0.815727 -0.110160 -7.107041 
0.855942 -0.118737 -7.232073 
0.816055 -0.132455 -7.106921 
0.816195 -0.138022 -7.106747 
0.853525 -0.151091 -7.223876 
0.813737 -0.154546 -7.098606 
0.811250 -0.187764 -7.091059 
0.853982 -0.194235 -7.225894 
0.809074 -0.215314 -7.082593 
0.853132 -0.226722 -7.222451 
0.806815 -0.287335 -7.075631 
0.792212 -0.412535 -7.027882 
0.792294 -0.418051 -7.027833 
0.784399 -0.433353 -7.004402 
0.782196 -0.449368 -6.995901 
0.836841 0.085714 -7.175636 
0.834055 0.075037 -7.166582 
0.832685 0.064447 -7.162291 
0.833309 0.059411 -7.162296 
0.840987 0.054849 -7.186206 
0.834673 0.048961 -7.167597 
0.852337 0.046167 -7.222342 
0.840745 0.038948 -7.187079 
0.844406 0.034163 -7.196583 
0.841320 0.028599 -7.187369 
0.847654 0.018649 -7.206791 
0.828131 0.006648 -7.146647 
0.828216 0.001050 -7.146618 
0.848279 -0.002309 -7.207609 
0.825832 -0.004462 -7.137843 
0.825679 -0.010070 -7.138405 
0.823062 -0.015583 -7.130234 
0.847028 -0.018268 -7.203541 
0.823146 -0.021171 -7.130205 
0.826136 -0.026835 -7.137812 
0.826220 -0.032428 -7.137782 
0.850442 -0.033826 -7.213726 
0.826304 -0.038020 -7.137753 
0.823482 -0.043524 -7.130088 
0.848930 -0.044610 -7.209492 
0.850334 -0.049859 -7.214580 
0.850571 -0.055106 -7.214755 
0.821006 -0.060172 -7.121945 
0.820915 -0.065770 -7.122347 
0.852246 -0.076304 -7.220559 
0.821247 -0.088102 -7.122229 
0.851486 -0.102945 -7.216827 
0.854769 -0.118725 -7.227136 
0.816683 -0.143549 -7.105713 
0.816764 -0.149121 -7.105682 
0.854435 -0.156129 -7.223783 
0.814006 -0.160091 -7.098114 
0.856257 -0.166700 -7.229020 
0.809255 -0.220856 -7.082313 
0.809396 -0.226404 -7.082132 
0.854469 -0.242530 -7.222736 
0.807300 -0.292816 -7.074604 
0.804892 -0.325806 -7.066874 
0.802331 -0.347660 -7.059220 
0.799900 -0.363901 -7.051116 
0.835244 0.070210 -7.166366 
0.835447 0.065027 -7.166538 
0.830405 0.059191 -7.152771 
0.833920 0.054369 -7.162307 
0.828097 0.051460 -7.145253 
0.841784 0.044600 -7.186408 
0.831141 0.040240 -7.152956 
0.831105 0.034633 -7.153233 
0.841918 0.034098 -7.186873 
0.846369 0.023892 -7.201681 
0.840458 0.018136 -7.182878 
0.848195 0.013557 -7.206841 
0.848605 0.008413 -7.206944 
0.848624 0.003121 -7.207204 
0.847376 -0.012825 -7.203136 
0.850316 -0.023230 -7.213237 
0.850730 -0.028394 -7.213340 
0.849526 -0.039053 -7.208984 
0.823892 -0.049086 -7.129251 
0.849333 -0.049790 -7.209598 
0.853143 -0.059915 -7.219378 
0.851105 -0.060242 -7.214811 
0.851616 -0.070737 -7.215147 
0.824186 -0.077032 -7.129406 
0.853428 -0.081201 -7.220354 
0.821571 -0.082482 -7.121251 
0.824474 -0.088195 -7.129044 
0.850786 -0.092020 -7.211168 
0.821737 -0.093646 -7.121191 
0.819411 -0.104634 -7.112516 
0.855532 -0.113045 -7.226552 
0.814463 -0.165612 -7.097158 
0.855282 -0.177433 -7.224540 
0.811984 -0.193239 -7.089422 
0.855852 -0.198900 -7.225412 
0.812204 -0.198782 -7.089048 
0.854773 -0.231492 -7.222063 
0.810068 -0.231872 -7.080648 
0.810030 -0.265281 -7.081713 
0.810096 -0.270838 -7.081709 
0.810161 -0.276395 -7.081710 
0.800587 -0.369311 -7.049599 
0.797879 -0.380029 -7.042037 
0.836959 0.070415 -7.171022 
0.834537 0.049327 -7.162315 
0.837409 0.049535 -7.171858 
0.831259 0.045850 -7.152476 
0.838055 0.044500 -7.171857 
0.834491 0.044042 -7.162583 
0.831400 0.029042 -7.152681 
0.831703 0.023452 -7.152109 
0.842605 0.023786 -7.187119 
0.847722 0.013811 -7.201671 
0.826425 0.001171 -7.136186 
0.847910 -0.007317 -7.202657 
0.832852 -0.012794 -7.155949 
0.846750 -0.017932 -7.198283 
0.826696 -0.021199 -7.136239 
0.849871 -0.022956 -7.208041 
0.847522 -0.049580 -7.199563 
0.850292 -0.054760 -7.209482 
0.822145 -0.099196 -7.120355 
0.851206 -0.102587 -7.211539 
0.854621 -0.107557 -7.221239 
0.819773 -0.121351 -7.112138 
0.819855 -0.126927 -7.112108 
0.855149 -0.134255 -7.222395 
0.817659 -0.154596 -7.103645 
0.853762 -0.155913 -7.218634 
0.814810 -0.171145 -7.096473 
0.815094 -0.176685 -7.095942 
0.855082 -0.204147 -7.220564 
0.810496 -0.237374 -7.079762 
0.810521 -0.259635 -7.080348 
0.803221 -0.353039 -7.057205 
0.833671 0.054693 -7.157073 
0.834668 0.040242 -7.159100 
0.835220 0.039035 -7.162548 
0.841879 0.034506 -7.181542 
0.843226 0.018728 -7.187133 
0.831920 0.017858 -7.151754 
0.846614 0.013831 -7.196755 
0.832179 0.012267 -7.151289 
0.832264 0.006668 -7.151261 
0.833079 0.004132 -7.154895 
0.848444 -0.001813 -7.202178 
0.829606 -0.010068 -7.143519 
0.847344 -0.012399 -7.197782 
0.826984 -0.015583 -7.135341 
0.832604 -0.015731 -7.151145 
0.848760 -0.022932 -7.203114 
0.850750 -0.033264 -7.208224 
0.827405 -0.043534 -7.135195 
0.850792 -0.047328 -7.209114 
0.849308 -0.049349 -7.204227 
0.824812 -0.054606 -7.127145 
0.849735 -0.054521 -7.204323 
0.851543 -0.064962 -7.209517 
0.825120 -0.071356 -7.126912 
0.852798 -0.075631 -7.214942 
0.853497 -0.086069 -7.215202 
0.851827 -0.086255 -7.210480 
0.851969 -0.096922 -7.210962 
0.819982 -0.115744 -7.111451 
0.855600 -0.117923 -7.221390 
0.855745 -0.128630 -7.221880 
0.820227 -0.132470 -7.111360 
0.820309 -0.138045 -7.111330 
0.820471 -0.149195 -7.111269 
0.856393 -0.159891 -7.222998 
0.854838 -0.160885 -7.218473 
0.820633 -0.160344 -7.111207 
0.856326 -0.171594 -7.223843 
0.855351 -0.182329 -7.219359 
0.815581 -0.182197 -7.094911 
0.813016 -0.204241 -7.087220 
0.854105 -0.214920 -7.216071 
0.810793 -0.242895 -7.079197 
0.810951 -0.254001 -7.079134 
0.808598 -0.298152 -7.071587 
0.808757 -0.303685 -7.071355 
0.798769 -0.385386 -7.040031 
0.796216 -0.407117 -7.032419 
0.788588 -0.427912 -7.008448 
0.786185 -0.438466 -7.000267 
0.840542 0.044985 -7.176216 
0.834958 0.034648 -7.158563 
0.842117 0.029314 -7.181705 
0.833204 0.023309 -7.153407 
0.845992 0.019319 -7.191386 
0.846055 0.014053 -7.191622 
0.848897 0.008952 -7.201466 
0.832593 0.001082 -7.150623 
0.829928 -0.004448 -7.142535 
0.832925 -0.010105 -7.150159 
0.846403 -0.012313 -7.192792 
0.838723 -0.013000 -7.169036 
0.830097 -0.015637 -7.142477 
0.831506 -0.018823 -7.145350 
0.848205 -0.022700 -7.197967 
0.830350 -0.032420 -7.142389 
0.836136 -0.034346 -7.160346 
0.849824 -0.043821 -7.203754 
0.828098 -0.049077 -7.133649 
0.851441 -0.056721 -7.207243 
0.825244 -0.060162 -7.126251 
0.825240 -0.065754 -7.126438 
0.852518 -0.075280 -7.209664 
0.828294 -0.077039 -7.134048 
0.854092 -0.080483 -7.214692 
0.825489 -0.082507 -7.126348 
0.825654 -0.093676 -7.126288 
0.854340 -0.107197 -7.215949 
0.820469 -0.110110 -7.110074 
0.854762 -0.117780 -7.216322 
0.856508 -0.122945 -7.221298 
0.854628 -0.128596 -7.216921 
0.856726 -0.139018 -7.222032 
0.853942 -0.160758 -7.213415 
0.854843 -0.176803 -7.215884 
0.816068 -0.187707 -7.093879 
0.811042 -0.248422 -7.078750 
0.811647 -0.281711 -7.078228 
0.809160 -0.309173 -7.070528 
0.806800 -0.331007 -7.062374 
0.806876 -0.336547 -7.062342 
0.799170 -0.390842 -7.039209 
0.839641 0.039806 -7.171487 
0.851038 0.039418 -7.206020 
0.838352 0.034482 -7.166908 
0.841849 0.029639 -7.176467 
0.835721 0.029087 -7.157514 
0.842004 0.024415 -7.176661 
0.835971 0.023899 -7.157665 
0.834220 0.013112 -7.153506 
0.846889 0.009070 -7.191552 
0.841839 0.008491 -7.177495 
0.831905 0.006158 -7.146704 
0.848412 0.003908 -7.196565 
0.833356 -0.002328 -7.150032 
0.833044 -0.004494 -7.149680 
0.833298 -0.007088 -7.148652 
0.848550 -0.006642 -7.197037 
0.830588 -0.021203 -7.141435 
0.845617 -0.022792 -7.188265 
0.830672 -0.026797 -7.141406 
0.851788 -0.027551 -7.207540 
0.832079 -0.029231 -7.145617 
0.830678 -0.037995 -7.141752 
0.850781 -0.038130 -7.203104 
0.847997 -0.048949 -7.193996 
0.833598 -0.054893 -7.149924 
0.852349 -0.057616 -7.207904 
0.851137 -0.059322 -7.204028 
0.836519 -0.060599 -7.157763 
0.828431 -0.071431 -7.133531 
0.852867 -0.080496 -7.209793 
0.828597 -0.082607 -7.133471 
0.828680 -0.088195 -7.133441 
0.851895 -0.091123 -7.205328 
0.826346 -0.099200 -7.124746 
0.852038 -0.101793 -7.205807 
0.823528 -0.104647 -7.117103 
0.856363 -0.112246 -7.220809 
0.855113 -0.123021 -7.216454 
0.855257 -0.133733 -7.216939 
0.821203 -0.143526 -7.109290 
0.854355 -0.155189 -7.212978 
0.818741 -0.160044 -7.101147 
0.819040 -0.165585 -7.100577 
0.856395 -0.176488 -7.218664 
0.813828 -0.209697 -7.085392 
0.816033 -0.210917 -7.091649 
0.809644 -0.314645 -7.069501 
0.809721 -0.320189 -7.069469 
0.806953 -0.342086 -7.062309 
0.789680 -0.433186 -7.005970 
0.787236 -0.443740 -6.997893 
0.784788 -0.459784 -6.989991 
0.842183 0.040311 -7.175824 
0.840592 0.034879 -7.171366 
0.851085 0.033558 -7.203105 
0.839060 0.029464 -7.166882 
0.835957 0.029088 -7.156246 
0.839482 0.024339 -7.166968 
0.836043 0.023486 -7.156218 
0.839631 0.019111 -7.167162 
0.836313 0.018742 -7.157781 
0.839863 0.013910 -7.167324 
0.836655 0.013582 -7.157896 
0.835377 0.008249 -7.153302 
0.846334 -0.006598 -7.187199 
0.847442 -0.006620 -7.192117 
0.840264 -0.017732 -7.168684 
0.832681 -0.023692 -7.145138 
0.837697 -0.028440 -7.159485 
0.836138 -0.033902 -7.154988 
0.831127 -0.043561 -7.140811 
0.828791 -0.054616 -7.132103 
0.853280 -0.069638 -7.209089 
0.831544 -0.071523 -7.140663 
0.831627 -0.077115 -7.140634 
0.856018 -0.077323 -7.217876 
0.852309 -0.080252 -7.204628 
0.831710 -0.082707 -7.140604 
0.854448 -0.106685 -7.210505 
0.855524 -0.112104 -7.215743 
0.824006 -0.121356 -7.116437 
0.854553 -0.122767 -7.211274 
0.824088 -0.126933 -7.116407 
0.854651 -0.128110 -7.211504 
0.824344 -0.132491 -7.115946 
0.854975 -0.133366 -7.211645 
0.856555 -0.138605 -7.216689 
0.854852 -0.149590 -7.212507 
0.821771 -0.154623 -7.108225 
0.855410 -0.165573 -7.213096 
0.819380 -0.171119 -7.099908 
0.816961 -0.193161 -7.091848 
0.816435 -0.206459 -7.089601 
0.804925 -0.358253 -7.053212 
0.802697 -0.374427 -7.044626 
0.851054 0.027718 -7.202238 
0.841389 0.024614 -7.171560 
0.841788 0.019478 -7.171657 
0.838394 0.013795 -7.162557 
0.837275 0.008522 -7.157903 
0.843689 0.003883 -7.177021 
0.836020 0.003195 -7.153299 
0.846818 -0.001116 -7.186746 
0.842524 -0.012016 -7.172895 
0.839200 -0.012386 -7.163496 
0.832118 -0.018055 -7.141129 
0.838225 -0.022928 -7.159028 
0.847348 -0.027454 -7.187838 
0.852881 -0.027493 -7.206040 
0.834481 -0.032411 -7.146998 
0.852067 -0.032321 -7.202323 
0.839467 -0.033532 -7.164399 
0.850472 -0.043126 -7.198119 
0.831651 -0.049119 -7.139685 
0.850802 -0.058997 -7.198782 
0.852207 -0.064251 -7.203866 
0.852791 -0.069369 -7.203900 
0.852935 -0.085362 -7.204644 
0.829372 -0.093724 -7.131896 
0.853078 -0.096022 -7.205122 
0.827038 -0.104721 -7.123203 
0.824422 -0.110142 -7.115061 
0.824342 -0.115735 -7.115433 
0.853325 -0.122777 -7.206364 
0.824669 -0.138040 -7.115312 
0.855514 -0.143930 -7.211969 
0.824831 -0.149192 -7.115251 
0.854268 -0.154738 -7.207599 
0.854497 -0.160047 -7.207777 
0.824993 -0.160343 -7.115190 
0.856319 -0.170614 -7.213001 
0.854239 -0.176417 -7.206929 
0.819608 -0.176667 -7.099514 
0.857674 -0.181489 -7.218700 
0.814639 -0.215150 -7.083564 
0.814779 -0.220697 -7.083384 
0.814960 -0.226237 -7.083103 
0.858878 -0.235235 -7.220678 
0.808046 -0.347428 -7.059798 
0.800547 -0.396090 -7.036023 
0.787880 -0.449104 -6.996495 
0.788013 -0.454585 -6.996323 
0.839300 0.034685 -7.162676 
0.842740 0.014543 -7.171536 
0.851016 0.010202 -7.198206 
0.839172 0.008794 -7.162503 
0.837894 0.003459 -7.157909 
0.836577 -0.001893 -7.153329 
0.838581 -0.006879 -7.158140 
0.836678 -0.007154 -7.153537 
0.844740 -0.011624 -7.177375 
0.836777 -0.012419 -7.153746 
0.840098 -0.017356 -7.163395 
0.837273 -0.017538 -7.153800 
0.843214 -0.022374 -7.173133 
0.835531 -0.028373 -7.149625 
0.834646 -0.038001 -7.146766 
0.838702 -0.038696 -7.159592 
0.849731 -0.053619 -7.193569 
0.837734 -0.054891 -7.154540 
0.829787 -0.060127 -7.129802 
0.851871 -0.063925 -7.198620 
0.829837 -0.065715 -7.129857 
0.832512 -0.065841 -7.138072 
0.853348 -0.074500 -7.203944 
0.852377 -0.085116 -7.199480 
0.852347 -0.090483 -7.199758 
0.852520 -0.095775 -7.199955 
0.853777 -0.106479 -7.205378 
0.852805 -0.117132 -7.200905 
0.854420 -0.127724 -7.206193 
0.855883 -0.138392 -7.211550 
0.825115 -0.143574 -7.114376 
0.853514 -0.149158 -7.202224 
0.825278 -0.154724 -7.114315 
0.853657 -0.159897 -7.202701 
0.859600 -0.164861 -7.222243 
0.825439 -0.165873 -7.114254 
0.820094 -0.182180 -7.098481 
0.820418 -0.187712 -7.097849 
0.817609 -0.198645 -7.090418 
0.855914 -0.202801 -7.209368 
0.818057 -0.209236 -7.090662 
0.815446 -0.231731 -7.082075 
0.815715 -0.265084 -7.082384 
0.815793 -0.270636 -7.082352 
0.815871 -0.276189 -7.082320 
0.805814 -0.363624 -7.051200 
0.806093 -0.369113 -7.050673 
0.803585 -0.379787 -7.042619 
0.801028 -0.401523 -7.035005 
0.793464 -0.427837 -7.010994 
0.839950 0.003790 -7.162448 
0.843220 -0.001155 -7.172111 
0.840796 -0.006488 -7.162619 
0.846678 -0.011336 -7.181964 
0.845085 -0.016801 -7.177495 
0.836564 -0.022673 -7.148976 
0.844153 -0.027333 -7.173018 
0.851352 -0.032147 -7.197238 
0.840404 -0.038176 -7.162299 
0.835054 -0.043572 -7.145926 
0.840631 -0.052448 -7.162324 
0.832715 -0.054631 -7.137210 
0.840656 -0.054989 -7.162210 
0.850910 -0.058502 -7.193362 
0.840739 -0.060593 -7.162181 
0.850981 -0.063812 -7.193597 
0.838306 -0.066056 -7.153464 
0.835472 -0.071544 -7.145778 
0.835352 -0.077156 -7.146255 
0.835638 -0.082732 -7.145718 
0.832889 -0.088196 -7.137841 
0.851294 -0.095787 -7.195055 
0.852869 -0.101000 -7.200081 
0.830686 -0.104782 -7.128976 
0.852940 -0.106337 -7.200318 
0.853290 -0.111569 -7.200445 
0.851578 -0.117143 -7.196000 
0.853155 -0.122370 -7.201032 
0.854964 -0.132892 -7.206244 
0.855044 -0.138246 -7.206481 
0.853864 -0.154414 -7.202351 
0.855685 -0.164972 -7.207570 
0.856966 -0.170240 -7.210026 
0.823235 -0.171184 -7.105114 
0.816002 -0.259472 -7.081518 
0.813432 -0.286971 -7.074015 
0.813631 -0.292497 -7.073684 
0.798731 -0.412104 -7.026485 
0.796438 -0.422663 -7.017982 
0.791178 -0.438363 -7.002519 
0.851224 0.016008 -7.194378 
0.842864 -0.000855 -7.166903 
0.841144 -0.001061 -7.162231 
0.842457 -0.006304 -7.167315 
0.838227 -0.022488 -7.153677 
0.846053 -0.027058 -7.177627 
0.837251 -0.033039 -7.149202 
0.852515 -0.037027 -7.197039 
0.838426 -0.038356 -7.154344 
0.838377 -0.043629 -7.152567 
0.835544 -0.049134 -7.144883 
0.833204 -0.060186 -7.136169 
0.835794 -0.065915 -7.144794 
0.852941 -0.068855 -7.198458 
0.838389 -0.071654 -7.153434 
0.854583 -0.078981 -7.203521 
0.851890 -0.090197 -7.194553 
0.833296 -0.093754 -7.137002 
0.830672 -0.099191 -7.128836 
0.828337 -0.110177 -7.120151 
0.852175 -0.111536 -7.195497 
0.828297 -0.115768 -7.120423 
0.828298 -0.121355 -7.120595 
0.828322 -0.126940 -7.120708 
0.828461 -0.132512 -7.120533 
0.828624 -0.138081 -7.120302 
0.855952 -0.143273 -7.206385 
0.828827 -0.143645 -7.119969 
0.828787 -0.149237 -7.120241 
0.828949 -0.160392 -7.120179 
0.859669 -0.169750 -7.217070 
0.857187 -0.180918 -7.209737 
0.857298 -0.186257 -7.209593 
0.820985 -0.193211 -7.096618 
0.818663 -0.204069 -7.087990 
0.857384 -0.207627 -7.209047 
0.816104 -0.237197 -7.080619 
0.816314 -0.242729 -7.080267 
0.816494 -0.248265 -7.079987 
0.816341 -0.253853 -7.080525 
0.814074 -0.297980 -7.072757 
0.848735 -0.031804 -7.182184 
0.846676 -0.032139 -7.177638 
0.847299 -0.037221 -7.177649 
0.843861 -0.037633 -7.168284 
0.844262 -0.042802 -7.168380 
0.850497 -0.047547 -7.187630 
0.842511 -0.053672 -7.164213 
0.847656 -0.058391 -7.178538 
0.841431 -0.066144 -7.160625 
0.841636 -0.071736 -7.160289 
0.854011 -0.073786 -7.198295 
0.838878 -0.077216 -7.152389 
0.839163 -0.082795 -7.151851 
0.836531 -0.088250 -7.143661 
0.833784 -0.099303 -7.135961 
0.852588 -0.100643 -7.194803 
0.833866 -0.104890 -7.135931 
0.852751 -0.105943 -7.195002 
0.831526 -0.115878 -7.127232 
0.831608 -0.121460 -7.127202 
0.854896 -0.127059 -7.200602 
0.854690 -0.132522 -7.200951 
0.834357 -0.138413 -7.135748 
0.828989 -0.154800 -7.119908 
0.855402 -0.164597 -7.202270 
0.823760 -0.165540 -7.103649 
0.826498 -0.171324 -7.111800 
0.824022 -0.176661 -7.103337 
0.824365 -0.187771 -7.102824 
0.858016 -0.212800 -7.209064 
0.816964 -0.281570 -7.079797 
0.814395 -0.303482 -7.072128 
0.812234 -0.325280 -7.063479 
0.809746 -0.352646 -7.055802 
0.794757 -0.433065 -7.008028 
0.789654 -0.459709 -6.992532 
0.838683 0.029443 -7.151245 
0.838441 0.023616 -7.150074 
0.838433 0.017802 -7.150061 
0.838660 0.011997 -7.151207 
0.852013 -0.036771 -7.191870 
0.838538 -0.037869 -7.148947 
0.846366 -0.042450 -7.172912 
0.848062 -0.052904 -7.178119 
0.850979 -0.063359 -7.188222 
0.852605 -0.068528 -7.193213 
0.853485 -0.084224 -7.193653 
0.836817 -0.093822 -7.143125 
0.851959 -0.095063 -7.189404 
0.837021 -0.099402 -7.142791 
0.836981 -0.105005 -7.143064 
0.834354 -0.110436 -7.134889 
0.834638 -0.116001 -7.134354 
0.832095 -0.126998 -7.126163 
0.832177 -0.132579 -7.126133 
0.855876 -0.137435 -7.200744 
0.831853 -0.138205 -7.127111 
0.831934 -0.143787 -7.127080 
0.832016 -0.149368 -7.127049 
0.854491 -0.159075 -7.196959 
0.857988 -0.169448 -7.206914 
0.829920 -0.177029 -7.118275 
0.824493 -0.182177 -7.102339 
0.822160 -0.198624 -7.093885 
0.819473 -0.209523 -7.086162 
0.815081 -0.308917 -7.070605 
0.812717 -0.330743 -7.062455 
0.805285 -0.384973 -7.038642 
0.792471 -0.443581 -6.999558 
0.849932 -0.036668 -7.181968 
0.848754 -0.041989 -7.177330 
0.842312 -0.043640 -7.157691 
0.846803 -0.047607 -7.172995 
0.845218 -0.047762 -7.168258 
0.842395 -0.049240 -7.157662 
0.850281 -0.052507 -7.182608 
0.845287 -0.053063 -7.168485 
0.845633 -0.058261 -7.168603 
0.844961 -0.060586 -7.166601 
0.850699 -0.063012 -7.182961 
0.845868 -0.063504 -7.168765 
0.845166 -0.066181 -7.166265 
0.850770 -0.068322 -7.183193 
0.847437 -0.068693 -7.173769 
0.847863 -0.073869 -7.173857 
0.854079 -0.078646 -7.193152 
0.852372 -0.084195 -7.188715 
0.846580 -0.095301 -7.170013 
0.852528 -0.100199 -7.189440 
0.852873 -0.105426 -7.189565 
0.853174 -0.110673 -7.189708 
0.834842 -0.121574 -7.134020 
0.838106 -0.122627 -7.142325 
0.854615 -0.126695 -7.195317 
0.837675 -0.138528 -7.142375 
0.835249 -0.149500 -7.133868 
0.855231 -0.153380 -7.196397 
0.832502 -0.154901 -7.126010 
0.832785 -0.160456 -7.125475 
0.832866 -0.166036 -7.125444 
0.832947 -0.171615 -7.125414 
0.827425 -0.176787 -7.109671 
0.856701 -0.180348 -7.200793 
0.856812 -0.185681 -7.200648 
0.825175 -0.193238 -7.100989 
0.858109 -0.206826 -7.203331 
0.819796 -0.215044 -7.085532 
0.819997 -0.220581 -7.085202 
0.856129 -0.226799 -7.198281 
0.819954 -0.226154 -7.085470 
0.812996 -0.336242 -7.061927 
0.813073 -0.341778 -7.061894 
0.813271 -0.347291 -7.061564 
0.810633 -0.358018 -7.053791 
0.807995 -0.374270 -7.046194 
0.805766 -0.390409 -7.037624 
0.802931 -0.406646 -7.030544 
0.845439 -0.043713 -7.164855 
0.849101 -0.047181 -7.177451 
0.845523 -0.049317 -7.164826 
0.850629 -0.057705 -7.182729 
0.849381 -0.068401 -7.178371 
0.846603 -0.068558 -7.168729 
0.851007 -0.073571 -7.183359 
0.842812 -0.077239 -7.157513 
0.852578 -0.078767 -7.188371 
0.843098 -0.082820 -7.156975 
0.840461 -0.088277 -7.148777 
0.846881 -0.089830 -7.169640 
0.840544 -0.093871 -7.148746 
0.841058 -0.100951 -7.150935 
0.844653 -0.111200 -7.160778 
0.853983 -0.121094 -7.189912 
0.839945 -0.122375 -7.146986 
0.855799 -0.131604 -7.195109 
0.855559 -0.141842 -7.195517 
0.856235 -0.163773 -7.196527 
0.833149 -0.177178 -7.125081 
0.857004 -0.179782 -7.199633 
0.828193 -0.187846 -7.108103 
0.823089 -0.208203 -7.093613 
0.806247 -0.395842 -7.036606 
0.800836 -0.417170 -7.021544 
0.798339 -0.427762 -7.013541 
0.796049 -0.438288 -7.005063 
0.793560 -0.448840 -6.997088 
0.853420 -0.024664 -7.189075 
0.851581 -0.041363 -7.181574 
0.851319 -0.046785 -7.181937 
0.845856 -0.071732 -7.164707 
0.847339 -0.073614 -7.168694 
0.852298 -0.078416 -7.183106 
0.843585 -0.088381 -7.155928 
0.852440 -0.089057 -7.183570 
0.843668 -0.093979 -7.155898 
0.841467 -0.095436 -7.150527 
0.840990 -0.099429 -7.147804 
0.843013 -0.100653 -7.155543 
0.840911 -0.105039 -7.148179 
0.838278 -0.110471 -7.139997 
0.846490 -0.110949 -7.165434 
0.838361 -0.116060 -7.139966 
