0.7674020 -0.7176090 -6.2386350 0 255 0
1.2309770 -0.9481930 -7.5435920 0 255 0
1.2216010 -0.9487730 -7.5176940 0 255 0
1.1318190 -0.9515730 -7.2655870 0 255 0
0.7527030 -0.8435480 -6.1978570 0 255 0
0.7529230 -0.8486910 -6.1990640 0 255 0
0.7533520 -0.8539620 -6.2012270 0 255 0
0.7662830 -0.7210850 -6.2329010 0 255 0
0.7552270 -0.7469230 -6.2028100 0 255 0
1.2248030 -0.9492600 -7.5243020 0 255 0
1.2022800 -0.9470480 -7.4605410 0 255 0
1.1875110 -0.9491450 -7.4185630 0 255 0
1.1548300 -0.9528400 -7.3282200 0 255 0
1.1401080 -0.9549250 -7.2864290 0 255 0
0.7518250 -0.8330070 -6.1934520 0 255 0
0.7644370 -0.7224550 -6.2252930 0 255 0
0.7556670 -0.7517020 -6.2020190 0 255 0
0.7532810 -0.7609350 -6.1958640 0 255 0
1.1528580 -0.9505190 -7.3204850 0 255 0
1.1356300 -0.9511130 -7.2715350 0 255 0
1.1432930 -0.9554110 -7.2929820 0 255 0
1.1209350 -0.9531940 -7.2298460 0 255 0
0.7655060 -0.9152220 -6.2322790 0 255 0
0.7541940 -0.7587900 -6.1949980 0 255 0
0.7539050 -0.7656420 -6.1946930 0 255 0
0.7514080 -0.7798120 -6.1889020 0 255 0
0.7514780 -0.7847060 -6.1888740 0 255 0
0.7515480 -0.7896000 -6.1888470 0 255 0
0.7516880 -0.7993850 -6.1887920 0 255 0
1.2060970 -0.9465850 -7.4665030 0 255 0
0.7550420 -0.8563070 -6.1993170 0 255 0
0.7547220 -0.8619980 -6.1997230 0 255 0
0.7645660 -0.7295320 -6.2227850 0 255 0
0.7545100 -0.7530910 -6.1945970 0 255 0
0.7519420 -0.7943760 -6.1881540 0 255 0
1.2299370 -0.9585850 -7.5310060 0 255 0
1.1919500 -0.9477340 -7.4239000 0 255 0
0.7518270 -0.8091670 -6.1887360 0 255 0
1.1688780 -0.9464750 -7.3610500 0 255 0
1.1858430 -0.9523660 -7.4078590 0 255 0
0.7518970 -0.8140580 -6.1887090 0 255 0
0.7517660 -0.8190210 -6.1890940 0 255 0
0.7520360 -0.8238360 -6.1886530 0 255 0
0.7527950 -0.8384170 -6.1911470 0 255 0
0.7553620 -0.8506150 -6.1989110 0 255 0
0.7633740 -0.9091150 -6.2235980 0 255 0
0.7674080 -0.9212240 -6.2341510 0 255 0
0.7632750 -0.7325000 -6.2166130 0 255 0
1.2228070 -0.9533100 -7.5086250 0 255 0
1.1951440 -0.9482200 -7.4304820 0 255 0
1.1720670 -0.9469610 -7.3676160 0 255 0
1.1598530 -0.9505490 -7.3330000 0 255 0
0.7603230 -0.8752260 -6.2108760 0 255 0
0.7600420 -0.8799080 -6.2116760 0 255 0
1.2105350 -0.9451730 -7.4718350 0 255 0
1.1803870 -0.9503140 -7.3885560 0 255 0
0.7596040 -0.8697640 -6.2074010 0 255 0
0.7614180 -0.8858200 -6.2131940 0 255 0
0.7626890 -0.7375110 -6.2122630 0 255 0
0.7575840 -0.7559700 -6.1981760 0 255 0
0.7552690 -0.7700880 -6.1920000 0 255 0
1.2214660 -0.9499690 -7.5001150 0 255 0
1.1758800 -0.9464990 -7.3735690 0 255 0
1.1638860 -0.9497540 -7.3387360 0 255 0
1.1486670 -0.9525930 -7.2974330 0 255 0
1.1262250 -0.9505120 -7.2343960 0 255 0
0.7588850 -0.8643070 -6.2039300 0 255 0
0.7620770 -0.7424440 -6.2078450 0 255 0
0.7557080 -0.7748540 -6.1912120 0 255 0
0.7534200 -0.8036730 -6.1853430 0 255 0
1.1993060 -0.9472300 -7.4360940 0 255 0
1.1291810 -0.9513300 -7.2411400 0 255 0
0.7578420 -0.8486370 -6.1985690 0 255 0
0.7764660 -0.7178280 -6.2467850 0 255 0
1.2346550 -0.9491900 -7.5335200 0 255 0
1.2147840 -0.9440480 -7.4773550 0 255 0
1.1848250 -0.9489040 -7.3938960 0 255 0
1.1873930 -0.9503380 -7.4010880 0 255 0
0.7574310 -0.8433810 -6.1964960 0 255 0
0.7749950 -0.7203050 -6.2401460 0 255 0
0.7613540 -0.7470570 -6.2031430 0 255 0
1.2180400 -0.9444420 -7.4838850 0 255 0
1.2030660 -0.9468510 -7.4421060 0 255 0
1.1930310 -0.9524500 -7.4149870 0 255 0
1.1532300 -0.9509970 -7.3026590 0 255 0
1.1329880 -0.9508710 -7.2470820 0 255 0
0.7564730 -0.8286600 -6.1909070 0 255 0
0.7564920 -0.8328090 -6.1918330 0 255 0
1.1361670 -0.9513560 -7.2536190 0 255 0
0.7701980 -0.9157490 -6.2286950 0 255 0
0.7742220 -0.7247840 -6.2353060 0 255 0
0.7618880 -0.7510040 -6.2004880 0 255 0
0.7606620 -0.7517580 -6.1985220 0 255 0
1.2213640 -0.9447330 -7.4903480 0 255 0
1.2291030 -0.9490410 -7.5120430 0 255 0
1.2065900 -0.9468320 -7.4483580 0 255 0
1.1918290 -0.9489280 -7.4064250 0 255 0
0.7566940 -0.8257700 -6.1870770 0 255 0
1.1385830 -0.9572660 -7.2588540 0 255 0
0.7586200 -0.8337780 -6.1925780 0 255 0
0.7666450 -0.8922200 -6.2172340 0 255 0
0.7722310 -0.7257520 -6.2273340 0 255 0
0.7603400 -0.7575350 -6.1948530 0 255 0
0.7599380 -0.7649980 -6.1935490 0 255 0
0.7574380 -0.7791600 -6.1877620 0 255 0
0.7576920 -0.7839850 -6.1873540 0 255 0
1.1693940 -0.9467230 -7.3430330 0 255 0
1.1399740 -0.9508960 -7.2595620 0 255 0
1.1307490 -0.9508890 -7.2340650 0 255 0
0.7652910 -0.8701740 -6.2103440 0 255 0
0.7652900 -0.8751930 -6.2105540 0 255 0
0.7655100 -0.8803490 -6.2117660 0 255 0
0.7679100 -0.8981260 -6.2186810 0 255 0
0.7603760 -0.7697650 -6.1927600 0 255 0
1.2329210 -0.9485780 -7.5180080 0 255 0
1.2104050 -0.9463700 -7.4543150 0 255 0
1.1780180 -0.9495990 -7.3636310 0 255 0
0.7579910 -0.8182710 -6.1875460 0 255 0
0.7580630 -0.8231560 -6.1875130 0 255 0
0.7598810 -0.8396550 -6.1940130 0 255 0
0.7722610 -0.9217720 -6.2306700 0 255 0
0.7719790 -0.7317300 -6.2238400 0 255 0
0.7581300 -0.7887440 -6.1865670 0 255 0
0.7582000 -0.7936320 -6.1865390 0 255 0
0.7582690 -0.7985200 -6.1865120 0 255 0
1.2264900 -0.9540390 -7.4970190 0 255 0
0.7584080 -0.8082940 -6.1864560 0 255 0
0.7584780 -0.8131810 -6.1864290 0 255 0
1.1584850 -0.9483520 -7.3072120 0 255 0
1.1437810 -0.9504370 -7.2655040 0 255 0
1.1514440 -0.9547300 -7.2869270 0 255 0
0.7660970 -0.8863430 -6.2096170 0 255 0
0.7706850 -0.7346990 -6.2176660 0 255 0
0.7620260 -0.7596330 -6.1934830 0 255 0
1.2377390 -0.9523630 -7.5259350 0 255 0
1.2142190 -0.9459070 -7.4602720 0 255 0
0.7587070 -0.8032740 -6.1857240 0 255 0
1.2296890 -0.9545260 -7.5036170 0 255 0
1.1616680 -0.9488370 -7.3137610 0 255 0
0.7627420 -0.8485720 -6.1979880 0 255 0
0.7631740 -0.8538420 -6.2001500 0 255 0
0.7659480 -0.8748420 -6.2082840 0 255 0
0.7664190 -0.8806410 -6.2092090 0 255 0
1.1994560 -0.9480040 -7.4183340 0 255 0
1.1770130 -0.9458010 -7.3549290 0 255 0
0.7622140 -0.8432480 -6.1953940 0 255 0
0.7698080 -0.7388700 -6.2125660 0 255 0
1.2180320 -0.9454440 -7.4662280 0 255 0
1.1475880 -0.9499770 -7.2714460 0 255 0
0.7690900 -0.7434980 -6.2078760 0 255 0
1.2345400 -0.9531520 -7.5120420 0 255 0
1.2032680 -0.9475420 -7.4242880 0 255 0
1.1831540 -0.9471260 -7.3682790 0 255 0
1.1885180 -0.9496350 -7.3824060 0 255 0
1.1933430 -0.9529770 -7.3970870 0 255 0
1.1284320 -0.9482580 -7.2149750 0 255 0
0.7832990 -0.7183210 -6.2463230 0 255 0
0.7622870 -0.7740100 -6.1889300 0 255 0
1.1661010 -0.9474310 -7.3191020 0 255 0
1.1513940 -0.9495170 -7.2773870 0 255 0
0.7620250 -0.8284190 -6.1875760 0 255 0
1.1367030 -0.9515990 -7.2357340 0 255 0
0.7655670 -0.8575320 -6.1995590 0 255 0
0.7822800 -0.7221000 -6.2408510 0 255 0
0.7680540 -0.7472060 -6.2023720 0 255 0
0.7627240 -0.7787700 -6.1881420 0 255 0
0.7629780 -0.7835940 -6.1877350 0 255 0
1.2070810 -0.9470800 -7.4302420 0 255 0
1.1923290 -0.9491730 -7.3883570 0 255 0
0.7630490 -0.8277710 -6.1886240 0 255 0
1.1398800 -0.9520840 -7.2422650 0 255 0
0.7665130 -0.8633830 -6.2007920 0 255 0
0.7747410 -0.9047480 -6.2237730 0 255 0
0.7752130 -0.9105630 -6.2247030 0 255 0
0.7674630 -0.7522020 -6.1980110 0 255 0
1.2228610 -0.9434260 -7.4711520 0 255 0
0.7633480 -0.8227500 -6.1878920 0 255 0
1.1328620 -0.9468560 -7.2203210 0 255 0
0.7695320 -0.8697000 -6.2067580 0 255 0
0.7697720 -0.8748640 -6.2080550 0 255 0
0.7721240 -0.8928440 -6.2141730 0 255 0
0.7811210 -0.7254770 -6.2350230 0 255 0
1.2256590 -0.9445190 -7.4781400 0 255 0
1.2108920 -0.9466170 -7.4361950 0 255 0
0.7634630 -0.8177980 -6.1875410 0 255 0
0.7681330 -0.8538110 -6.1998280 0 255 0
0.7801220 -0.7293100 -6.2296080 0 255 0
0.7668710 -0.7571940 -6.1936490 0 255 0
1.2365930 -0.9493100 -7.5064020 0 255 0
1.1884400 -0.9444180 -7.3727700 0 255 0
1.1737150 -0.9465100 -7.3309900 0 255 0
1.1590050 -0.9485970 -7.2892690 0 255 0
0.7676030 -0.8484840 -6.1972330 0 255 0
0.7693630 -0.8694690 -6.2032650 0 255 0
0.7780750 -0.9166880 -6.2271990 0 255 0
0.7665130 -0.7641630 -6.1912660 0 255 0
0.7665820 -0.7690550 -6.1912380 0 255 0
1.2294710 -0.9440560 -7.4840950 0 255 0
1.2147040 -0.9461550 -7.4421480 0 255 0
1.1621860 -0.9490820 -7.2958110 0 255 0
1.1443110 -0.9506800 -7.2476100 0 255 0
0.7656600 -0.8345720 -6.1905510 0 255 0
0.7794560 -0.7340970 -6.2250470 0 255 0
0.7647010 -0.7878890 -6.1842910 0 255 0
0.7647700 -0.7927730 -6.1842630 0 255 0
0.7648400 -0.7976570 -6.1842360 0 255 0
1.1999500 -0.9482500 -7.4002580 0 255 0
1.1775220 -0.9460490 -7.3369330 0 255 0
1.1852100 -0.9503410 -7.3584260 0 255 0
1.1676140 -0.9514700 -7.3098030 0 255 0
0.7781000 -0.7368990 -6.2187200 0 255 0
0.7649090 -0.8025410 -6.1842080 0 255 0
0.7649780 -0.8074230 -6.1841800 0 255 0
0.7650470 -0.8123050 -6.1841520 0 255 0
1.1807060 -0.9465340 -7.3434850 0 255 0
1.1481150 -0.9502210 -7.2535470 0 255 0
1.1765330 -0.9464280 -7.3295080 0 255 0
1.1849460 -0.9512180 -7.3528340 0 255 0
1.1512930 -0.9507050 -7.2600790 0 255 0
0.7769770 -0.7403670 -6.2129940 0 255 0
1.2386480 -0.9525120 -7.5001710 0 255 0
1.1842010 -0.9465450 -7.3497330 0 255 0
1.1666160 -0.9476770 -7.3011500 0 255 0
0.7756810 -0.7433310 -6.2068260 0 255 0
0.7708090 -0.7592070 -6.1935730 0 255 0
0.7683040 -0.7733620 -6.1877910 0 255 0
0.7685570 -0.7781840 -6.1873840 0 255 0
1.2427860 -0.9482420 -7.5100970 0 255 0
1.2377950 -0.9538400 -7.4973470 0 255 0
1.2075690 -0.9473260 -7.4121570 0 255 0
1.1549480 -0.9504690 -7.2661580 0 255 0
0.7700920 -0.8408240 -6.1940460 0 255 0
0.7906260 -0.7202170 -6.2471210 0 255 0
1.1584000 -0.9505420 -7.2724310 0 255 0
1.1459440 -0.9592150 -7.2395120 0 255 0
0.7713570 -0.8467100 -6.1954830 0 255 0
0.7753920 -0.8759520 -6.2078130 0 255 0
0.7763380 -0.8875610 -6.2096660 0 255 0
0.7797560 -0.8995600 -6.2197800 0 255 0
0.7893240 -0.7231950 -6.2409280 0 255 0
0.7746110 -0.7469430 -6.2012370 0 255 0
0.7722470 -0.7607250 -6.1935110 0 255 0
0.7693740 -0.7828030 -6.1858090 0 255 0
1.2212960 -0.9414320 -7.4452870 0 255 0
1.2113780 -0.9468650 -7.4181050 0 255 0
0.7726230 -0.8525990 -6.1969200 0 255 0
0.7725090 -0.8534330 -6.1969030 0 255 0
0.7766600 -0.8818550 -6.2092570 0 255 0
0.7744320 -0.7531320 -6.1979300 0 255 0
1.2065480 -0.9435300 -7.4034240 0 255 0
1.1918140 -0.9456240 -7.3616200 0 255 0
1.1742240 -0.9467570 -7.3130290 0 255 0
0.7695450 -0.8220020 -6.1863740 0 255 0
0.7696140 -0.8268820 -6.1863460 0 255 0
0.7732550 -0.8584140 -6.1979470 0 255 0
0.7881730 -0.7266000 -6.2351240 0 255 0
1.2251030 -0.9409700 -7.4512340 0 255 0
1.2376800 -0.9486060 -7.4875930 0 255 0
1.2151870 -0.9464030 -7.4240540 0 255 0
1.1774060 -0.9472410 -7.3195720 0 255 0
0.7706510 -0.8293940 -6.1865740 0 255 0
0.7708070 -0.8351450 -6.1872870 0 255 0
0.7743620 -0.8642870 -6.1992830 0 255 0
0.7826200 -0.9056820 -6.2222720 0 255 0
0.7830940 -0.9114990 -6.2232040 0 255 0
0.7871590 -0.7303980 -6.2296760 0 255 0
0.7739510 -0.7584480 -6.1938520 0 255 0
0.7727110 -0.7634570 -6.1897450 0 255 0
1.2183770 -0.9468870 -7.4306240 0 255 0
1.2117390 -0.9463060 -7.4126610 0 255 0
1.1956200 -0.9451630 -7.3675620 0 255 0
1.1627030 -0.9493270 -7.2778910 0 255 0
1.1681260 -0.9517120 -7.2918630 0 255 0
1.1431280 -0.9482350 -7.2218460 0 255 0
0.7731470 -0.7682160 -6.1889580 0 255 0
0.7707110 -0.7872320 -6.1831560 0 255 0
0.7707800 -0.7921130 -6.1831270 0 255 0
0.7708490 -0.7969940 -6.1831000 0 255 0
1.2337550 -0.9438430 -7.4719040 0 255 0
1.2453610 -0.9532580 -7.5046290 0 255 0
1.1808990 -0.9472530 -7.3258140 0 255 0
1.1795980 -0.9495620 -7.3221120 0 255 0
1.1659590 -0.9496930 -7.2843510 0 255 0
1.1409950 -0.9461860 -7.2143520 0 255 0
1.1459940 -0.9491830 -7.2286570 0 255 0
0.7860710 -0.7339790 -6.2240380 0 255 0
1.2289110 -0.9405080 -7.4571810 0 255 0
1.2369480 -0.9443280 -7.4784840 0 255 0
0.7709180 -0.8018750 -6.1830720 0 255 0
0.7709870 -0.8067540 -6.1830440 0 255 0
1.2042490 -0.9480350 -7.3881570 0 255 0
0.7710560 -0.8116330 -6.1830160 0 255 0
0.7711250 -0.8165110 -6.1829890 0 255 0
0.7848210 -0.7370910 -6.2179890 0 255 0
0.7735820 -0.7729740 -6.1881710 0 255 0
1.1997350 -0.9442290 -7.3731980 0 255 0
1.1847030 -0.9467930 -7.3317540 0 255 0
1.1901380 -0.9491790 -7.3457610 0 255 0
1.1927020 -0.9506090 -7.3529220 0 255 0
1.1495100 -0.9491530 -7.2348570 0 255 0
0.7742910 -0.8412870 -6.1901630 0 255 0
0.7857290 -0.7366590 -6.2188720 0 255 0
0.7838710 -0.7410620 -6.2127080 0 255 0
0.7741860 -0.7776690 -6.1870340 0 255 0
1.2330260 -0.9395720 -7.4628150 0 255 0
1.2228030 -0.9454790 -7.4359490 0 255 0
1.2080560 -0.9475730 -7.3941020 0 255 0
0.7836160 -0.7408780 -6.2119660 0 255 0
0.7815070 -0.7450890 -6.2050720 0 255 0
0.7745910 -0.8314900 -6.1874560 0 255 0
0.7796020 -0.8706690 -6.2033090 0 255 0
0.7839750 -0.8942710 -6.2152660 0 255 0
0.7973590 -0.7204080 -6.2463890 0 255 0
0.7827120 -0.7444280 -6.2068950 0 255 0
1.2041590 -0.9428240 -7.3785260 0 255 0
1.1567850 -0.9487240 -7.2470260 0 255 0
1.1642750 -0.9532640 -7.2685550 0 255 0
0.7816930 -0.7481940 -6.2014420 0 255 0
0.7751830 -0.7822210 -6.1850810 0 255 0
1.2272270 -0.9440700 -7.4412720 0 255 0
1.2426910 -0.9526680 -7.4845030 0 255 0
1.2124810 -0.9461660 -7.3994290 0 255 0
1.1747310 -0.9470040 -7.2950980 0 255 0
1.1598190 -0.9494230 -7.2536860 0 255 0
0.7777800 -0.8474360 -6.1930410 0 255 0
0.7899550 -0.9181480 -6.2283110 0 255 0
0.7959660 -0.7231360 -6.2399720 0 255 0
0.7778050 -0.7631360 -6.1905050 0 255 0
1.2458870 -0.9531540 -7.4910880 0 255 0
1.1977480 -0.9482570 -7.3576440 0 255 0
1.1552500 -0.9457640 -7.2389480 0 255 0
1.1627550 -0.9502700 -7.2604410 0 255 0
0.7758020 -0.8261320 -6.1848290 0 255 0
0.7824630 -0.8767670 -6.2057880 0 255 0
0.7868420 -0.9003890 -6.2177560 0 255 0
0.7951020 -0.7273660 -6.2349050 0 255 0
0.7812720 -0.7536840 -6.1975150 0 255 0
0.7793080 -0.7614870 -6.1914790 0 255 0
0.7759830 -0.7868400 -6.1835370 0 255 0
1.1785320 -0.9465440 -7.3010330 0 255 0
1.1808560 -0.9483280 -7.3083990 0 255 0
1.1833400 -0.9498720 -7.3156160 0 255 0
0.7760990 -0.8211190 -6.1840990 0 255 0
1.1686380 -0.9519550 -7.2739530 0 255 0
0.7796840 -0.8534030 -6.1948920 0 255 0
0.7793630 -0.8591060 -6.1952990 0 255 0
0.7877910 -0.9120250 -6.2196170 0 255 0
0.7879900 -0.7408130 -6.2142510 0 255 0
0.7762350 -0.7916530 -6.1831300 0 255 0
0.7763040 -0.7965320 -6.1831020 0 255 0
0.7763730 -0.8014100 -6.1830740 0 255 0
1.2419560 -0.9483880 -7.4753980 0 255 0
0.7764410 -0.8062870 -6.1830460 0 255 0
1.2243100 -0.9495240 -7.4266150 0 255 0
0.7765100 -0.8111640 -6.1830180 0 255 0
0.7763960 -0.8161080 -6.1833690 0 255 0
0.7939740 -0.7308410 -6.2291680 0 255 0
0.7858770 -0.7450250 -6.2073550 0 255 0
0.7811210 -0.7599510 -6.1942750 0 255 0
0.7788780 -0.7676690 -6.1883890 0 255 0
0.7790390 -0.7725210 -6.1881720 0 255 0
1.2194740 -0.9461890 -7.4119330 0 255 0
1.2018610 -0.9473240 -7.3632780 0 255 0
1.1871420 -0.9494120 -7.3215530 0 255 0
1.1497880 -0.9497650 -7.2172520 0 255 0
0.7930220 -0.7348160 -6.2238820 0 255 0
0.7792900 -0.7773390 -6.1877640 0 255 0
1.2351470 -0.9426730 -7.4528490 0 255 0
0.7784940 -0.8360140 -6.1856670 0 255 0
1.2386450 -0.9426840 -7.4591070 0 255 0
1.2232790 -0.9457270 -7.4178770 0 255 0
1.2056650 -0.9468630 -7.3692180 0 255 0
1.1906340 -0.9494230 -7.3277920 0 255 0
1.1986350 -0.9532400 -7.3489500 0 255 0
1.1453180 -0.9459740 -7.2024690 0 255 0
0.8068760 -0.7195630 -6.2593520 0 255 0
0.7922460 -0.7392930 -6.2190440 0 255 0
0.7802710 -0.7818950 -6.1858400 0 255 0
1.1941780 -0.9493570 -7.3339820 0 255 0
0.7907680 -0.7417570 -6.2124220 0 255 0
1.1439330 -0.9428050 -7.1942930 0 255 0
1.1491140 -0.9455160 -7.2083930 0 255 0
1.1567580 -0.9497900 -7.2296960 0 255 0
0.7805920 -0.8308060 -6.1863180 0 255 0
0.7810320 -0.8420480 -6.1879250 0 255 0
0.7854050 -0.8655800 -6.1998390 0 255 0
0.7929080 -0.9069230 -6.2223340 0 255 0
0.8056820 -0.7184220 -6.2525770 0 255 0
0.7902460 -0.7449600 -6.2096370 0 255 0
0.7877700 -0.7492900 -6.2035130 0 255 0
0.7856610 -0.7534860 -6.1966370 0 255 0
0.7831690 -0.7627190 -6.1906940 0 255 0
1.1976190 -0.9494470 -7.3402730 0 255 0
1.1752360 -0.9472500 -7.2771980 0 255 0
0.7808880 -0.8257940 -6.1855880 0 255 0
0.8047990 -0.7226070 -6.2474580 0 255 0
0.7841780 -0.7638160 -6.1918580 0 255 0
0.7835110 -0.7675080 -6.1900970 0 255 0
1.2308880 -0.9448030 -7.4297610 0 255 0
1.2209790 -0.9502300 -7.4026120 0 255 0
0.7866760 -0.8714830 -6.2012820 0 255 0
0.7910620 -0.8950970 -6.2132430 0 255 0
0.7887490 -0.7538660 -6.2015810 0 255 0
0.7839700 -0.7722530 -6.1892560 0 255 0
0.7815070 -0.7863550 -6.1833870 0 255 0
0.7816850 -0.7911930 -6.1831320 0 255 0
0.7817530 -0.7960690 -6.1831040 0 255 0
1.2469620 -0.9524470 -7.4723130 0 255 0
1.2495430 -0.9538820 -7.4795230 0 255 0
1.2113210 -0.9435680 -7.3733190 0 255 0
1.2161470 -0.9468970 -7.3879560 0 255 0
1.1560790 -0.9455410 -7.2208260 0 255 0
1.1611780 -0.9483900 -7.2350320 0 255 0
0.7835720 -0.8480870 -6.1901860 0 255 0
0.7920160 -0.9009740 -6.2144840 0 255 0
0.8034900 -0.7255850 -6.2412620 0 255 0
0.7864580 -0.7581210 -6.1950890 0 255 0
0.7844140 -0.7770020 -6.1884470 0 255 0
1.2444140 -0.9391960 -7.4630440 0 255 0
0.7820040 -0.8008790 -6.1826970 0 255 0
1.2346920 -0.9443420 -7.4357030 0 255 0
1.2193340 -0.9473810 -7.3945120 0 255 0
1.1790350 -0.9467910 -7.2831280 0 255 0
0.7819860 -0.8204830 -6.1831910 0 255 0
1.1500300 -0.9486810 -7.2031670 0 255 0
1.1470140 -0.9497140 -7.1930580 0 255 0
0.8019180 -0.7278080 -6.2343980 0 255 0
0.7892510 -0.7524320 -6.2001600 0 255 0
0.7824370 -0.8056190 -6.1819120 0 255 0
1.2149360 -0.9433910 -7.3794380 0 255 0
0.7825050 -0.8104930 -6.1818840 0 255 0
1.2052230 -0.9485260 -7.3521470 0 255 0
0.7822100 -0.8155020 -6.1826130 0 255 0
1.1649740 -0.9479310 -7.2409580 0 255 0
0.7849190 -0.7817260 -6.1875090 0 255 0
0.7850610 -0.7865800 -6.1873290 0 255 0
1.2384950 -0.9438800 -7.4416440 0 255 0
1.2462240 -0.9481710 -7.4632250 0 255 0
1.1879400 -0.9491980 -7.3033280 0 255 0
1.1905090 -0.9506120 -7.3104560 0 255 0
1.1758110 -0.9526930 -7.2688260 0 255 0
1.1506200 -0.9495380 -7.1991550 0 255 0
0.8009770 -0.7318220 -6.2291410 0 255 0
0.7924990 -0.7490990 -6.2050310 0 255 0
0.7876190 -0.7626230 -6.1927810 0 255 0
1.2090230 -0.9480650 -7.3580820 0 255 0
1.1936900 -0.9510960 -7.3169930 0 255 0
1.1682580 -0.9482480 -7.2473720 0 255 0
1.1738880 -0.9503060 -7.2611000 0 255 0
0.8001350 -0.7361140 -6.2241350 0 255 0
0.7882590 -0.7673060 -6.1915600 0 255 0
1.2422980 -0.9434180 -7.4475850 0 255 0
1.2122070 -0.9485490 -7.3646290 0 255 0
1.1866300 -0.9458720 -7.2949860 0 255 0
1.1715390 -0.9485690 -7.2537880 0 255 0
0.7883440 -0.8543980 -6.1938940 0 255 0
0.8114750 -0.7225090 -6.2546070 0 255 0
0.7861300 -0.7794760 -6.1845000 0 255 0
1.2275540 -0.9455130 -7.4057720 0 255 0
0.7896160 -0.8602970 -6.1953340 0 255 0
0.7962740 -0.8842310 -6.2153960 0 255 0
0.7964990 -0.8900210 -6.2161630 0 255 0
0.7896330 -0.8888000 -6.1964770 0 255 0
0.8010650 -0.9195080 -6.2289030 0 255 0
0.7993230 -0.7404910 -6.2192070 0 255 0
0.7887570 -0.7720370 -6.1906380 0 255 0
0.7865840 -0.7909300 -6.1842700 0 255 0
1.1852240 -0.9426980 -7.2867480 0 255 0
1.1981080 -0.9496920 -7.3223220 0 255 0
0.7855540 -0.8310700 -6.1830240 0 255 0
0.7861880 -0.8368830 -6.1840470 0 255 0
0.7984080 -0.9075510 -6.2192690 0 255 0
0.8140640 -0.7228140 -6.2571130 0 255 0
0.7974010 -0.7416980 -6.2114680 0 255 0
0.7892800 -0.7767550 -6.1896610 0 255 0
1.2461010 -0.9429560 -7.4535250 0 255 0
1.2313560 -0.9450520 -7.4117110 0 255 0
1.2012900 -0.9501760 -7.3288600 0 255 0
0.7869940 -0.8201730 -6.1841020 0 255 0
0.7870620 -0.8250450 -6.1840730 0 255 0
1.1652280 -0.9530930 -7.2292530 0 255 0
0.7943290 -0.8781740 -6.2068720 0 255 0
0.7919100 -0.7576740 -6.1950860 0 255 0
0.7871980 -0.7956070 -6.1831060 0 255 0
0.7872670 -0.8004810 -6.1830780 0 255 0
1.1616900 -0.9486340 -7.2172140 0 255 0
0.7865380 -0.8286420 -6.1816220 0 255 0
0.7871300 -0.8299160 -6.1840450 0 255 0
0.7877770 -0.8428090 -6.1856880 0 255 0
0.8124220 -0.7253100 -6.2489780 0 255 0
0.7974870 -0.7486360 -6.2088200 0 255 0
0.7968650 -0.7490340 -6.2073120 0 255 0
0.7947480 -0.7532300 -6.2004340 0 255 0
0.7923410 -0.7624310 -6.1942990 0 255 0
1.2351570 -0.9445910 -7.4176470 0 255 0
1.2172410 -0.9462000 -7.3693420 0 255 0
1.2249480 -0.9504860 -7.3908310 0 255 0
0.7874710 -0.8150980 -6.1829940 0 255 0
1.2047800 -0.9501870 -7.3350960 0 255 0
1.1824000 -0.9479910 -7.2720720 0 255 0
1.1572170 -0.9448480 -7.2024450 0 255 0
1.1535940 -0.9499760 -7.1939270 0 255 0
0.8057060 -0.7359620 -6.2294920 0 255 0
0.7974780 -0.7537370 -6.2061400 0 255 0
0.7906200 -0.7719540 -6.1874030 0 255 0
1.2204240 -0.9466830 -7.3758880 0 255 0
1.1958130 -0.9541830 -7.3071090 0 255 0
1.1650240 -0.9488720 -7.2235700 0 255 0
1.1502050 -0.9511920 -7.1822550 0 255 0
0.8107560 -0.7272840 -6.2418790 0 255 0
0.7958710 -0.7516950 -6.2010060 0 255 0
0.7931360 -0.7670570 -6.1927520 0 255 0
0.7919790 -0.7729650 -6.1908560 0 255 0
0.7908010 -0.7811130 -6.1866000 0 255 0
0.7908690 -0.7859900 -6.1865720 0 255 0
1.2389580 -0.9441290 -7.4235840 0 255 0
0.7884250 -0.8049520 -6.1807790 0 255 0
1.2544170 -0.9527120 -7.4667160 0 255 0
0.7884930 -0.8098220 -6.1807510 0 255 0
1.2083940 -0.9500100 -7.3412110 0 255 0
0.7894300 -0.8309230 -6.1841780 0 255 0
0.8094450 -0.7302600 -6.2356860 0 255 0
1.1861960 -0.9475320 -7.2779970 0 255 0
1.1610080 -0.9443900 -7.2083620 0 255 0
1.1715170 -0.9496120 -7.2364520 0 255 0
1.1539960 -0.9507350 -7.1881730 0 255 0
0.8153620 -0.7259990 -6.2507610 0 255 0
0.7936190 -0.7717920 -6.1918560 0 255 0
1.2427580 -0.9436680 -7.4295210 0 255 0
1.2123780 -0.9492660 -7.3469610 0 255 0
1.1898060 -0.9473550 -7.2841030 0 255 0
1.1919300 -0.9494400 -7.2916450 0 255 0
1.1996120 -0.9537220 -7.3130410 0 255 0
0.8004020 -0.8846840 -6.2114370 0 255 0
0.8201140 -0.7234520 -6.2609700 0 255 0
0.8078320 -0.7323730 -6.2287290 0 255 0
0.8098840 -0.7353510 -6.2331110 0 255 0
0.7963410 -0.7575830 -6.1972110 0 255 0
0.7918000 -0.8003500 -6.1849720 0 255 0
1.2181270 -0.9511780 -7.3606550 0 255 0
1.1577880 -0.9502770 -7.1940920 0 255 0
0.7972720 -0.8669730 -6.2009150 0 255 0
0.8071100 -0.7370090 -6.2240300 0 255 0
0.7944110 -0.7746130 -6.1892470 0 255 0
1.2542870 -0.9474930 -7.4570130 0 255 0
1.2309000 -0.9467170 -7.3946130 0 255 0
1.2161760 -0.9488060 -7.3528930 0 255 0
0.7919990 -0.8198630 -6.1850110 0 255 0
0.7922110 -0.8319770 -6.1851390 0 255 0
1.1562470 -0.9544650 -7.1881510 0 255 0
0.7941460 -0.8493040 -6.1904240 0 255 0
0.8023200 -0.8906850 -6.2133040 0 255 0
0.8060980 -0.9143060 -6.2249010 0 255 0
0.7972800 -0.7621610 -6.1953600 0 255 0
0.7924620 -0.7903120 -6.1833630 0 255 0
0.7926380 -0.7951450 -6.1831080 0 255 0
1.2465580 -0.9432060 -7.4354560 0 255 0
1.1762410 -0.9477420 -7.2414880 0 255 0
1.1839040 -0.9520160 -7.2628140 0 255 0
0.7954200 -0.8552030 -6.1918640 0 255 0
0.7985470 -0.8728830 -6.2023600 0 255 0
0.8029570 -0.8965290 -6.2143380 0 255 0
0.8195440 -0.7253870 -6.2543830 0 255 0
0.8072880 -0.7442050 -6.2216060 0 255 0
0.7944100 -0.7733140 -6.1867050 0 255 0
1.2347000 -0.9462550 -7.4005470 0 255 0
1.2072080 -0.9528020 -7.3249030 0 255 0
0.7930460 -0.8243650 -6.1829390 0 255 0
1.1605630 -0.9493190 -7.1967520 0 255 0
0.7922990 -0.8375680 -6.1813970 0 255 0
0.8052710 -0.7451590 -6.2136380 0 255 0
0.7978550 -0.7668640 -6.1942680 0 255 0
0.7945110 -0.7803130 -6.1840950 0 255 0
1.2503570 -0.9427440 -7.4413920 0 255 0
0.7933180 -0.8046860 -6.1819170 0 255 0
0.7930920 -0.8145600 -6.1826170 0 255 0
1.2055710 -0.9499590 -7.3168600 0 255 0
1.1826070 -0.9486770 -7.2544960 0 255 0
1.1649250 -0.9440120 -7.2051820 0 255 0
0.7931140 -0.8292330 -6.1829100 0 255 0
0.8089850 -0.9204520 -6.2274050 0 255 0
0.8140630 -0.7347390 -6.2367300 0 255 0
0.8098250 -0.7392550 -6.2253700 0 255 0
0.8004920 -0.7575920 -6.1999250 0 255 0
0.7937490 -0.8094220 -6.1811320 0 255 0
1.2237720 -0.9478850 -7.3647570 0 255 0
1.2259090 -0.9499730 -7.3723390 0 255 0
1.2110060 -0.9523420 -7.3308330 0 255 0
1.1883170 -0.9506150 -7.2681430 0 255 0
0.8020530 -0.8963460 -6.2071100 0 255 0
0.8194830 -0.7264060 -6.2490570 0 255 0
0.8044580 -0.7495330 -6.2087130 0 255 0
0.8034720 -0.7531010 -6.2049900 0 255 0
1.2541570 -0.9422830 -7.4473270 0 255 0
1.2394190 -0.9443780 -7.4055550 0 255 0
1.2292160 -0.9502680 -7.3787620 0 255 0
1.2142490 -0.9527310 -7.3373100 0 255 0
1.1739510 -0.9522210 -7.2263250 0 255 0
0.7950740 -0.8319810 -6.1847840 0 255 0
0.8258000 -0.7258100 -6.2643090 0 255 0
0.7990100 -0.7713580 -6.1919630 0 255 0
0.7968530 -0.7853350 -6.1854370 0 255 0
1.2324010 -0.9507520 -7.3853100 0 255 0
1.1639760 -0.9461930 -7.1977570 0 255 0
0.8264500 -0.7232760 -6.2640410 0 255 0
0.8228970 -0.7268840 -6.2550770 0 255 0
0.8185600 -0.7304910 -6.2438470 0 255 0
1.1924200 -0.9496840 -7.2737680 0 255 0
1.1722600 -0.9494940 -7.2184160 0 255 0
1.1777430 -0.9517630 -7.2322450 0 255 0
1.1545110 -0.9509760 -7.1704220 0 255 0
0.8163570 -0.7309550 -6.2354040 0 255 0
0.8182410 -0.7341280 -6.2403490 0 255 0
0.8019620 -0.7619810 -6.1969520 0 255 0
0.7974640 -0.7900100 -6.1842730 0 255 0
0.7976000 -0.7997520 -6.1842170 0 255 0
1.2321110 -0.9542280 -7.3812290 0 255 0
1.2186000 -0.9514210 -7.3426940 0 255 0
1.1828200 -0.9430510 -7.2447470 0 255 0
1.1678530 -0.9456010 -7.2035880 0 255 0
1.1530050 -0.9479890 -7.1623870 0 255 0
1.1630820 -0.9538360 -7.1907830 0 255 0
0.8014860 -0.8616820 -6.1964060 0 255 0
0.8046250 -0.8793870 -6.2069200 0 255 0
0.8055800 -0.8910290 -6.2087790 0 255 0
0.8093690 -0.9031070 -6.2191280 0 255 0
0.8095260 -0.9088970 -6.2198520 0 255 0
0.8144700 -0.7382770 -6.2283970 0 255 0
0.8125310 -0.7436460 -6.2230220 0 255 0
0.7978930 -0.7947490 -6.1834880 0 255 0
1.2624720 -0.9520290 -7.4605010 0 255 0
1.2368130 -0.9493460 -7.3906270 0 255 0
0.7978710 -0.8192280 -6.1841030 0 255 0
1.1608460 -0.9519420 -7.1834110 0 255 0
0.7983550 -0.8440200 -6.1859220 0 255 0
0.8059030 -0.8853070 -6.2083690 0 255 0
0.8065340 -0.9026740 -6.2106400 0 255 0
0.8338090 -0.7205220 -6.2788750 0 255 0
1.2470130 -0.9434560 -7.4174180 0 255 0
0.7981650 -0.8142250 -6.1833750 0 255 0
1.2220890 -0.9514330 -7.3489270 0 255 0
1.1990810 -0.9501790 -7.2865110 0 255 0
0.7983000 -0.8239590 -6.1833190 0 255 0
1.1715530 -0.9452770 -7.2095850 0 255 0
1.1815360 -0.9513040 -7.2381650 0 255 0
1.1675050 -0.9487530 -7.1996760 0 255 0
0.7980730 -0.8338270 -6.1840180 0 255 0
0.8299840 -0.7251970 -6.2679340 0 255 0
0.8219510 -0.7338830 -6.2445610 0 255 0
0.8057090 -0.7572250 -6.2003960 0 255 0
0.8032960 -0.7664130 -6.1942660 0 255 0
1.2501990 -0.9439380 -7.4239700 0 255 0
1.2619680 -0.9496200 -7.4561490 0 255 0
1.2252710 -0.9519160 -7.3554660 0 255 0
1.2022570 -0.9506620 -7.2930330 0 255 0
0.7985480 -0.8287560 -6.1829120 0 255 0
0.7963930 -0.8437580 -6.1780550 0 255 0
1.2455110 -0.9403790 -7.4091700 0 255 0
1.2535060 -0.9442320 -7.4303970 0 255 0
1.2409170 -0.9484130 -7.3962520 0 255 0
1.2057430 -0.9506740 -7.2992580 0 255 0
0.8043630 -0.8677850 -6.1988850 0 255 0
0.8132180 -0.9151430 -6.2228770 0 255 0
0.8266670 -0.7289940 -6.2553480 0 255 0
0.8186450 -0.7376660 -6.2320130 0 255 0
0.8140190 -0.7443980 -6.2208740 0 255 0
0.8040860 -0.7710340 -6.1927200 0 255 0
0.8013090 -0.7740140 -6.1864160 0 255 0
0.7992940 -0.8040200 -6.1807850 0 255 0
0.7993620 -0.8088870 -6.1807570 0 255 0
1.2111740 -0.9530550 -7.3132120 0 255 0
1.1562000 -0.9547080 -7.1610350 0 255 0
0.8289480 -0.7275220 -6.2589340 0 255 0
0.8123520 -0.7463580 -6.2137990 0 255 0
0.8012110 -0.7804350 -6.1832990 0 255 0
1.2571810 -0.9439600 -7.4364530 0 255 0
1.2623350 -0.9468150 -7.4508120 0 255 0
1.2447140 -0.9479520 -7.4021830 0 255 0
1.2296820 -0.9505120 -7.3607860 0 255 0
1.2095360 -0.9502140 -7.3051810 0 255 0
1.2143540 -0.9535390 -7.3197420 0 255 0
1.2194840 -0.9563950 -7.3340170 0 255 0
1.1919830 -0.9513400 -7.2568120 0 255 0
1.1696410 -0.9550690 -7.1958740 0 255 0
0.8360250 -0.7213690 -6.2764880 0 255 0
0.8325510 -0.7237790 -6.2677690 0 255 0
0.8258950 -0.7334550 -6.2484770 0 255 0
0.8094570 -0.7524650 -6.2038420 0 255 0
0.8022870 -0.7848770 -6.1854380 0 255 0
0.8024630 -0.7897080 -6.1851830 0 255 0
1.2533540 -0.9508190 -7.4227620 0 255 0
1.1623920 -0.9558890 -7.1741510 0 255 0
0.8267960 -0.7282070 -6.2497690 0 255 0
0.8113710 -0.7502580 -6.2084520 0 255 0
0.8074020 -0.7615320 -6.1969490 0 255 0
0.8015530 -0.7869030 -6.1818620 0 255 0
1.2608910 -0.9436330 -7.4424740 0 255 0
1.2334310 -0.9501220 -7.3667600 0 255 0
1.2181490 -0.9530780 -7.3256680 0 255 0
1.2007660 -0.9539200 -7.2770730 0 255 0
1.1725220 -0.9500990 -7.2008620 0 255 0
1.1655150 -0.9564390 -7.1806870 0 255 0
1.1677530 -0.9583340 -7.1880570 0 255 0
0.8258180 -0.7321420 -6.2444210 0 255 0
0.8248900 -0.7380960 -6.2419100 0 255 0
1.2366600 -0.9505340 -7.3732540 0 255 0
1.1881090 -0.9466120 -7.2414260 0 255 0
1.1957730 -0.9508810 -7.2627310 0 255 0
1.1811020 -0.9529570 -7.2212430 0 255 0
0.8012880 -0.8328420 -6.1799830 0 255 0
0.8047430 -0.8505240 -6.1906630 0 255 0
0.8057010 -0.8563910 -6.1918970 0 255 0
0.8091650 -0.8741290 -6.2026120 0 255 0
0.8228210 -0.7370550 -6.2356300 0 255 0
0.8185810 -0.7415660 -6.2242790 0 255 0
0.8127350 -0.7527800 -6.2084030 0 255 0
0.8104270 -0.7570320 -6.2019110 0 255 0
1.1912800 -0.9470940 -7.2479320 0 255 0
1.1791120 -0.9506820 -7.2136230 0 255 0
1.1842730 -0.9534400 -7.2277470 0 255 0
1.1716320 -0.9577420 -7.1938900 0 255 0
0.8025640 -0.8387370 -6.1814190 0 255 0
0.8067720 -0.8989090 -6.1942290 0 255 0
0.8083710 -0.7660910 -6.1950220 0 255 0
0.8059590 -0.7752620 -6.1889020 0 255 0
0.8036850 -0.7941550 -6.1827340 0 255 0
1.2500390 -0.9451310 -7.4065700 0 255 0
1.2580670 -0.9489400 -7.4277630 0 255 0
1.2404560 -0.9500730 -7.3791830 0 255 0
1.1995640 -0.9504220 -7.2686510 0 255 0
1.1769730 -0.9486340 -7.2061490 0 255 0
0.8107660 -0.8800870 -6.2042680 0 255 0
0.8303080 -0.7326600 -6.2518010 0 255 0
0.8048900 -0.7908140 -6.1833090 0 255 0
0.8041140 -0.7988890 -6.1819500 0 255 0
0.8043160 -0.8134850 -6.1818640 0 255 0
1.2257380 -0.9521580 -7.3375210 0 255 0
0.8040900 -0.8233480 -6.1825630 0 255 0
1.2081660 -0.9532840 -7.2890970 0 255 0
0.8042250 -0.8330730 -6.1825070 0 255 0
0.8120930 -0.8860150 -6.2057470 0 255 0
0.8126860 -0.8918530 -6.2067510 0 255 0
0.8158430 -0.9096290 -6.2173040 0 255 0
0.8409270 -0.7215390 -6.2787690 0 255 0
0.8413570 -0.7226850 -6.2800250 0 255 0
0.8350010 -0.7281600 -6.2627910 0 255 0
0.8047880 -0.7918170 -6.1817730 0 255 0
0.8045420 -0.8036210 -6.1811660 0 255 0
1.2538330 -0.9446700 -7.4124980 0 255 0
1.2667140 -0.9518090 -7.4483620 0 255 0
0.8046090 -0.8084860 -6.1811370 0 255 0
1.2442500 -0.9496130 -7.3851100 0 255 0
0.8043840 -0.8183480 -6.1818360 0 255 0
0.8045180 -0.8280740 -6.1817790 0 255 0
0.8085800 -0.8624920 -6.1943750 0 255 0
0.8290670 -0.7374840 -6.2455280 0 255 0
0.8217080 -0.7406130 -6.2254330 0 255 0
0.8144240 -0.7570940 -6.2049480 0 255 0
0.8117560 -0.7614670 -6.1992230 0 255 0
0.8097000 -0.7705170 -6.1923390 0 255 0
0.8026080 -0.7961390 -6.1734650 0 255 0
1.2660240 -0.9489860 -7.4443970 0 255 0
1.2065300 -0.9504460 -7.2810850 0 255 0
1.2119580 -0.9528250 -7.2950190 0 255 0
1.1886810 -0.9520400 -7.2330750 0 255 0
0.8075560 -0.8850360 -6.1904040 0 255 0
0.8179310 -0.9156700 -6.2192820 0 255 0
0.8389350 -0.7234680 -6.2707100 0 255 0
0.8232210 -0.7405880 -6.2273030 0 255 0
0.8211070 -0.7455980 -6.2210380 0 255 0
1.2627780 -0.9470610 -7.4327630 0 255 0
1.2654770 -0.9483000 -7.4398130 0 255 0
1.2474340 -0.9500960 -7.3916530 0 255 0
1.2302210 -0.9506370 -7.3427630 0 255 0
1.1767560 -0.9538780 -7.1981220 0 255 0
1.1593790 -0.9561800 -7.1502700 0 255 0
0.8085640 -0.7757250 -6.1870160 0 255 0
1.2509230 -0.9501070 -7.3978890 0 255 0
1.2154420 -0.9528360 -7.3012400 0 255 0
1.1778090 -0.9536550 -7.1975540 0 255 0
0.8089060 -0.9042760 -6.1901410 0 255 0
0.8190800 -0.7465510 -6.2130680 0 255 0
0.8129040 -0.7659620 -6.1969160 0 255 0
0.8106680 -0.7750680 -6.1904160 0 255 0
0.8083150 -0.7817140 -6.1835170 0 255 0
0.8349540 -0.7316810 -6.2548270 0 255 0
0.8332450 -0.7368730 -6.2491460 0 255 0
0.8268420 -0.7404100 -6.2316130 0 255 0
0.8185290 -0.7516740 -6.2088050 0 255 0
1.2595630 -0.9529740 -7.4184560 0 255 0
1.2371180 -0.9507770 -7.3552960 0 255 0
1.2190960 -0.9525880 -7.3072950 0 255 0
1.1991220 -0.9520770 -7.2517090 0 255 0
0.8099150 -0.8511010 -6.1873890 0 255 0
0.8133860 -0.8688310 -6.1980980 0 255 0
0.8179850 -0.8982860 -6.2108040 0 255 0
0.8433020 -0.7233160 -6.2756430 0 255 0
0.8162900 -0.7613380 -6.2011180 0 255 0
0.8078010 -0.7869450 -6.1793500 0 255 0
1.2552670 -0.9487960 -7.4032620 0 255 0
1.2188210 -0.9490060 -7.3032880 0 255 0
1.1968740 -0.9501830 -7.2443150 0 255 0
1.1819670 -0.9526330 -7.2031150 0 255 0
1.1745920 -0.9595370 -7.1832960 0 255 0
0.8410540 -0.7287980 -6.2666500 0 255 0
0.8178760 -0.7565100 -6.2042860 0 255 0
0.8142310 -0.7703880 -6.1942320 0 255 0
1.2585120 -0.9491840 -7.4097440 0 255 0
1.2687820 -0.9532170 -7.4381200 0 255 0
0.8093350 -0.8229410 -6.1829430 0 255 0
1.1949370 -0.9478210 -7.2366310 0 255 0
0.8094690 -0.8326630 -6.1828860 0 255 0
1.1901780 -0.9560560 -7.2238420 0 255 0
0.8096330 -0.7967350 -6.1812290 0 255 0
1.2639680 -0.9515670 -7.4237660 0 255 0
1.2360810 -0.9469950 -7.3466370 0 255 0
1.2409110 -0.9503170 -7.3612190 0 255 0
1.2029100 -0.9516180 -7.2576240 0 255 0
1.1783800 -0.9590790 -7.1892090 0 255 0
0.8159520 -0.8749060 -6.2003740 0 255 0
0.8200730 -0.9043210 -6.2127790 0 255 0
0.8391320 -0.7310690 -6.2584460 0 255 0
0.8307150 -0.7400360 -6.2356060 0 255 0
0.8170200 -0.7607680 -6.1992600 0 255 0
0.8102800 -0.8128130 -6.1807330 0 255 0
1.2265920 -0.9518010 -7.3192220 0 255 0
1.1860000 -0.9517990 -7.2087920 0 255 0
1.1939670 -0.9555980 -7.2297570 0 255 0
0.8178710 -0.8924370 -6.2034740 0 255 0
0.8453190 -0.7231570 -6.2736510 0 255 0
0.8313730 -0.7423670 -6.2349330 0 255 0
0.8164180 -0.7657460 -6.1948700 0 255 0
0.8151970 -0.7749370 -6.1923090 0 255 0
0.8106170 -0.7980280 -6.1796860 0 255 0
0.8106840 -0.8028890 -6.1796570 0 255 0
0.8103920 -0.8078840 -6.1803840 0 255 0
1.2677620 -0.9511060 -7.4296950 0 255 0
1.2703410 -0.9525340 -7.4368670 0 255 0
1.2447030 -0.9498560 -7.3671430 0 255 0
0.8105260 -0.8176050 -6.1803270 0 255 0
1.2299940 -0.9519400 -7.3255260 0 255 0
1.2066980 -0.9511590 -7.2635390 0 255 0
1.2121230 -0.9535360 -7.2774540 0 255 0
0.8106610 -0.8273240 -6.1802700 0 255 0
1.1891690 -0.9522810 -7.2152880 0 255 0
0.8103790 -0.8339480 -6.1806450 0 255 0
0.8135980 -0.8572940 -6.1903800 0 255 0
0.8185170 -0.8867520 -6.2032710 0 255 0
1.2152980 -0.9540190 -7.2839680 0 255 0
0.8185190 -0.8809860 -6.2026530 0 255 0
0.8298740 -0.7448360 -6.2282890 0 255 0
0.8160690 -0.7714470 -6.1911170 0 255 0
1.2484950 -0.9493960 -7.3730670 0 255 0
1.2107940 -0.9502300 -7.2691570 0 255 0
0.8433110 -0.7304570 -6.2620650 0 255 0
0.8390550 -0.7349770 -6.2506890 0 255 0
1.2571270 -0.9522600 -7.3935990 0 255 0
1.2648520 -0.9565450 -7.4150810 0 255 0
1.2725880 -0.9608370 -7.4365960 0 255 0
1.2337850 -0.9514800 -7.3314470 0 255 0
1.2190880 -0.9535600 -7.2898860 0 255 0
0.8138320 -0.8472440 -6.1854460 0 255 0
0.8290930 -0.7493190 -6.2234430 0 255 0
0.8189400 -0.7701930 -6.1957460 0 255 0
0.8155170 -0.7765690 -6.1868550 0 255 0
1.2747100 -0.9421650 -7.4403330 0 255 0
1.2017260 -0.9543990 -7.2414070 0 255 0
0.8121950 -0.8331170 -6.1790740 0 255 0
0.8155890 -0.8800240 -6.1889900 0 255 0
0.8474380 -0.7284870 -6.2695910 0 255 0
0.8357370 -0.7387560 -6.2381440 0 255 0
0.8312590 -0.7434460 -6.2270950 0 255 0
0.8270590 -0.7502700 -6.2154650 0 255 0
0.8155750 -0.7834280 -6.1841170 0 255 0
1.2526350 -0.9483960 -7.3786390 0 255 0
1.2609190 -0.9517980 -7.3995230 0 255 0
1.2375750 -0.9510200 -7.3373670 0 255 0
1.2228770 -0.9531000 -7.2958040 0 255 0
1.1996020 -0.9523170 -7.2339030 0 255 0
1.1870640 -0.9564700 -7.1999820 0 255 0
0.8161630 -0.8899350 -6.1891450 0 255 0
0.8260990 -0.7542440 -6.2101780 0 255 0
0.8148910 -0.7931000 -6.1819830 0 255 0
1.2637980 -0.9527540 -7.4063730 0 255 0
1.2681890 -0.9587660 -7.4187430 0 255 0
1.2053290 -0.9542230 -7.2474980 0 255 0
0.8150680 -0.8321160 -6.1825090 0 255 0
1.1849460 -0.9543890 -7.1924980 0 255 0
0.8152020 -0.8418310 -6.1824510 0 255 0
0.8157300 -0.8459980 -6.1839150 0 255 0
0.8269970 -0.9109800 -6.2178890 0 255 0
0.8429980 -0.7345490 -6.2546020 0 255 0
0.8429220 -0.7359590 -6.2549070 0 255 0
0.8151490 -0.7889150 -6.1801710 0 255 0
1.2723960 -0.9542000 -7.4282160 0 255 0
0.8155850 -0.8172690 -6.1810850 0 255 0
1.1986340 -0.9600960 -7.2270280 0 255 0
0.8160520 -0.8402810 -6.1835060 0 255 0
0.8201740 -0.8696060 -6.1958570 0 255 0
0.8243020 -0.8990140 -6.2082540 0 255 0
0.8474890 -0.7298450 -6.2656850 0 255 0
0.8253180 -0.7587210 -6.2053390 0 255 0
0.8156310 -0.8074840 -6.1807640 0 255 0
0.8156980 -0.8123430 -6.1807360 0 255 0
1.2419760 -0.9496180 -7.3426800 0 255 0
1.2270300 -0.9520800 -7.3013630 0 255 0
0.8157190 -0.8269850 -6.1810270 0 255 0
1.2091160 -0.9537640 -7.2534110 0 255 0
0.8158520 -0.8366980 -6.1809700 0 255 0
0.8170110 -0.8519040 -6.1853550 0 255 0
0.8204970 -0.8638820 -6.1954470 0 255 0
0.8173530 -0.8980570 -6.1876260 0 255 0
0.8290910 -0.9170280 -6.2198700 0 255 0
0.8394440 -0.7385120 -6.2423500 0 255 0
0.8150790 -0.7954170 -6.1771140 0 255 0
1.2451550 -0.9501000 -7.3492060 0 255 0
1.1973110 -0.9567890 -7.2187660 0 255 0
0.8263940 -0.9050510 -6.2102290 0 255 0
0.8523570 -0.7209490 -6.2747520 0 255 0
0.8239120 -0.7614300 -6.1989410 0 255 0
0.8165720 -0.7973660 -6.1785570 0 255 0
0.8165310 -0.8022640 -6.1787550 0 255 0
1.2713830 -0.9518310 -7.4182240 0 255 0
1.2129020 -0.9533060 -7.2593240 0 255 0
1.1925150 -0.9534740 -7.2043140 0 255 0
1.1697730 -0.9519840 -7.1422350 0 255 0
1.1826570 -0.9588560 -7.1773800 0 255 0
0.8227440 -0.8756840 -6.1981330 0 255 0
0.8534240 -0.7198600 -6.2751560 0 255 0
0.8495580 -0.7338180 -6.2655310 0 255 0
0.8470340 -0.7340470 -6.2583980 0 255 0
0.8375760 -0.7410480 -6.2328540 0 255 0
0.8233100 -0.7664090 -6.1945520 0 255 0
1.2489430 -0.9496400 -7.3551250 0 255 0
1.2314470 -0.9506530 -7.3066630 0 255 0
0.8167990 -0.8216920 -6.1786410 0 255 0
1.2778890 -0.9447740 -7.4322490 0 255 0
1.2751750 -0.9513700 -7.4241490 0 255 0
1.2163820 -0.9533170 -7.2655330 0 255 0
1.1961130 -0.9532980 -7.2103970 0 255 0
1.1864420 -0.9583980 -7.1832880 0 255 0
0.8537290 -0.7273840 -6.2730120 0 255 0
0.8454290 -0.7417720 -6.2513300 0 255 0
0.8367570 -0.7454320 -6.2279160 0 255 0
0.8234030 -0.7733600 -6.1918980 0 255 0
1.2527320 -0.9491800 -7.3610430 0 255 0
1.2048820 -0.9558730 -7.2305870 0 255 0
0.8585400 -0.7241860 -6.2844850 0 255 0
0.8461610 -0.7385740 -6.2516530 0 255 0
0.8395990 -0.7422250 -6.2343180 0 255 0
0.8361550 -0.7504200 -6.2235180 0 255 0
0.8221340 -0.7764500 -6.1858470 0 255 0
1.2380290 -0.9512620 -7.3194680 0 255 0
0.8203040 -0.8317070 -6.1828880 0 255 0
1.1971440 -0.9537170 -7.2085540 0 255 0
0.8262820 -0.8818860 -6.2010360 0 255 0
0.8272460 -0.8877750 -6.2022780 0 255 0
0.8518540 -0.7288590 -6.2654260 0 255 0
1.2565210 -0.9487200 -7.3669610 0 255 0
0.8211850 -0.8330500 -6.1836840 0 255 0
1.1908410 -0.9570010 -7.1886130 0 255 0
0.8317130 -0.9115060 -6.2142930 0 255 0
0.8505260 -0.7318440 -6.2592050 0 255 0
0.8385900 -0.7468520 -6.2277700 0 255 0
0.8352280 -0.7544990 -6.2183140 0 255 0
0.8221250 -0.7831160 -6.1829400 0 255 0
0.8210440 -0.8070160 -6.1807670 0 255 0
1.2418170 -0.9508030 -7.3253840 0 255 0
1.2086670 -0.9554140 -7.2364960 0 255 0
0.8202650 -0.8349880 -6.1789990 0 255 0
1.1940080 -0.9574830 -7.1951010 0 255 0
0.8285320 -0.8937060 -6.2037290 0 255 0
0.8499170 -0.7382930 -6.2558030 0 255 0
0.8479470 -0.7401170 -6.2501790 0 255 0
0.8455940 -0.7428550 -6.2445240 0 255 0
0.8448720 -0.7454310 -6.2426690 0 255 0
0.8215130 -0.8019590 -6.1796640 0 255 0
0.8212900 -0.8118070 -6.1803600 0 255 0
1.2764330 -0.9535620 -7.4165190 0 255 0
1.2680270 -0.9525340 -7.3943120 0 255 0
1.2449930 -0.9512850 -7.3319030 0 255 0
1.2244120 -0.9516940 -7.2769100 0 255 0
0.8213110 -0.8264410 -6.1806520 0 255 0
0.8247180 -0.8585810 -6.1909330 0 255 0
0.8502850 -0.7378540 -6.2557000 0 255 0
0.8485370 -0.7415260 -6.2513290 0 255 0
0.8452080 -0.7445990 -6.2424300 0 255 0
0.8338680 -0.7573560 -6.2120310 0 255 0
0.8222350 -0.7901240 -6.1803270 0 255 0
0.8218040 -0.7969690 -6.1789380 0 255 0
1.2555510 -0.9469030 -7.3584390 0 255 0
1.2379080 -0.9460770 -7.3099470 0 255 0
0.8217140 -0.8165270 -6.1795770 0 255 0
0.8217810 -0.8213820 -6.1795490 0 255 0
1.2226180 -0.9490970 -7.2690680 0 255 0
1.2054530 -0.9612960 -7.2222440 0 255 0
0.8653040 -0.7228110 -6.2940240 0 255 0
0.8327660 -0.7609340 -6.2063920 0 255 0
1.2640960 -0.9477990 -7.3787960 0 255 0
1.2718160 -0.9520730 -7.4002330 0 255 0
1.2487800 -0.9508250 -7.3378180 0 255 0
1.2309870 -0.9523060 -7.2897030 0 255 0
0.8219800 -0.8359420 -6.1794620 0 255 0
0.8269660 -0.8703810 -6.1936170 0 255 0
0.8243610 -0.8844140 -6.1872620 0 255 0
0.8354260 -0.9177630 -6.2173190 0 255 0
0.8624320 -0.7271910 -6.2849210 0 255 0
0.8493210 -0.7425960 -6.2487050 0 255 0
0.8425260 -0.7464250 -6.2316760 0 255 0
0.8273570 -0.7784430 -6.1896280 0 255 0
1.1984070 -0.9560860 -7.2004240 0 255 0
0.8318050 -0.7649070 -6.2011070 0 255 0
0.8225090 -0.7949500 -6.1761510 0 255 0
1.2678830 -0.9473390 -7.3847130 0 255 0
1.2756060 -0.9516120 -7.4061540 0 255 0
1.2833390 -0.9558930 -7.4276290 0 255 0
1.2015740 -0.9565680 -7.2069130 0 255 0
0.8254500 -0.8928310 -6.1860270 0 255 0
0.8614580 -0.7235780 -6.2776040 0 255 0
0.8312020 -0.7698880 -6.1967150 0 255 0
1.2630440 -0.9440230 -7.3701320 0 255 0
1.2527330 -0.9501080 -7.3435680 0 255 0
1.2349670 -0.9515470 -7.2954240 0 255 0
0.8462290 -0.7461820 -6.2358760 0 255 0
1.2793950 -0.9511510 -7.4120730 0 255 0
1.2152120 -0.9507270 -7.2397530 0 255 0
1.2053560 -0.9561100 -7.2128190 0 255 0
0.8309900 -0.8766390 -6.1968270 0 255 0
0.8262460 -0.9021210 -6.1855910 0 255 0
0.8351410 -0.9060890 -6.2092400 0 255 0
0.8608550 -0.7285850 -6.2731890 0 255 0
0.8475630 -0.7490900 -6.2370150 0 255 0
0.8305980 -0.7748700 -6.1923230 0 255 0
1.2569610 -0.9489640 -7.3490410 0 255 0
0.8262500 -0.8310230 -6.1817560 0 255 0
1.1907090 -0.9581760 -7.1714750 0 255 0
0.8308320 -0.8650810 -6.1954880 0 255 0
0.8354670 -0.9003520 -6.2088280 0 255 0
0.8587200 -0.7293540 -6.2649660 0 255 0
0.8512150 -0.7452220 -6.2457050 0 255 0
0.8434700 -0.7522290 -6.2242220 0 255 0
0.8314540 -0.7735750 -6.1923030 0 255 0
0.8293510 -0.7780270 -6.1863300 0 255 0
0.8264930 -0.8016540 -6.1805710 0 255 0
0.8266790 -0.8064650 -6.1802910 0 255 0
0.8265190 -0.8114050 -6.1807400 0 255 0
1.2601390 -0.9494450 -7.3555620 0 255 0
1.2393000 -0.9502440 -7.3007970 0 255 0
0.8267590 -0.8210720 -6.1804560 0 255 0
0.8265400 -0.8260340 -6.1810310 0 255 0
0.8330840 -0.8826670 -6.1987960 0 255 0
0.8675910 -0.7239570 -6.2884890 0 255 0
0.8549730 -0.7410520 -6.2541120 0 255 0
0.8270550 -0.7916840 -6.1791580 0 255 0
1.2462000 -0.9486450 -7.3171280 0 255 0
0.8292600 -0.8475550 -6.1860090 0 255 0
0.8289380 -0.8532810 -6.1864190 0 255 0
0.8580080 -0.7340540 -6.2602840 0 255 0
0.8459150 -0.7502540 -6.2284460 0 255 0
0.8426870 -0.7567130 -6.2193740 0 255 0
0.8290330 -0.7838170 -6.1826520 0 255 0
0.8272110 -0.7965070 -6.1789410 0 255 0
1.2460500 -0.9505860 -7.3134220 0 255 0
1.2508780 -0.9539030 -7.3279550 0 255 0
1.2227740 -0.9498100 -7.2515630 0 255 0
1.2281970 -0.9521820 -7.2654470 0 255 0
1.2129200 -0.9551940 -7.2246290 0 255 0
0.8295830 -0.8418290 -6.1856000 0 255 0
0.8302240 -0.8591980 -6.1878620 0 255 0
0.8388560 -0.9123420 -6.2122620 0 255 0
0.8413620 -0.7596790 -6.2131850 0 255 0
0.8324120 -0.7781170 -6.1903830 0 255 0
0.8276560 -0.8158540 -6.1784500 0 255 0
1.2488290 -0.9516790 -7.3203250 0 255 0
1.2160880 -0.9556760 -7.2311220 0 255 0
1.1982690 -0.9572610 -7.1832790 0 255 0
0.8311890 -0.8650790 -6.1891000 0 255 0
0.8351790 -0.8886980 -6.2007670 0 255 0
0.8583140 -0.7415820 -6.2581350 0 255 0
0.8289410 -0.7902470 -6.1795310 0 255 0
1.2645310 -0.9480440 -7.3608670 0 255 0
1.2445520 -0.9475190 -7.3052620 0 255 0
1.2263720 -0.9496340 -7.2576450 0 255 0
0.8404710 -0.7638570 -6.2080730 0 255 0
1.2554380 -0.9522440 -7.3330990 0 255 0
1.2351510 -0.9522050 -7.2778550 0 255 0
1.2020490 -0.9568040 -7.1891800 0 255 0
1.2070310 -0.9598360 -7.2034320 0 255 0
1.2787300 -0.9530900 -7.3952090 0 255 0
1.1972560 -0.9534950 -7.1747710 0 255 0
0.8325380 -0.8905560 -6.1871620 0 255 0
0.8701080 -0.7222900 -6.2844730 0 255 0
0.8503340 -0.7525090 -6.2311370 0 255 0
0.8397440 -0.7684960 -6.2033720 0 255 0
0.8361170 -0.7733930 -6.1938900 0 255 0
1.2689220 -0.9466430 -7.3661700 0 255 0
1.2823090 -0.9529530 -7.4013370 0 255 0
1.2210940 -0.9533390 -7.2358500 0 255 0
1.2058290 -0.9563470 -7.1950810 0 255 0
0.8727800 -0.7236090 -6.2890300 0 255 0
0.8695770 -0.7275030 -6.2802370 0 255 0
0.8575470 -0.7450460 -6.2487740 0 255 0
0.8539390 -0.7487790 -6.2399530 0 255 0
0.8490700 -0.7542630 -6.2255130 0 255 0
0.8391020 -0.7733720 -6.1988810 0 255 0
0.8342590 -0.7823280 -6.1865750 0 255 0
0.8319240 -0.7914210 -6.1802920 0 255 0
0.8319020 -0.7963090 -6.1804510 0 255 0
0.8319680 -0.8011620 -6.1804230 0 255 0
1.2720990 -0.9471240 -7.3726910 0 255 0
1.2341160 -0.9484350 -7.2692750 0 255 0
1.2389330 -0.9517460 -7.2837620 0 255 0
0.8360220 -0.8714300 -6.1928260 0 255 0
0.8716170 -0.7254600 -6.2850160 0 255 0
0.8370370 -0.7779470 -6.1920450 0 255 0
0.8323910 -0.8058820 -6.1796400 0 255 0
1.2602720 -0.9501590 -7.3379660 0 255 0
0.8312270 -0.8247090 -6.1782050 0 255 0
1.2417270 -0.9576850 -7.2875850 0 255 0
0.8317100 -0.8305250 -6.1791300 0 255 0
0.8405080 -0.8951390 -6.2048210 0 255 0
0.8690830 -0.7328160 -6.2760920 0 255 0
1.2758840 -0.9466640 -7.3786030 0 255 0
0.8324570 -0.8107350 -6.1796120 0 255 0
1.2660170 -0.9520630 -7.3516050 0 255 0
0.8325900 -0.8204360 -6.1795540 0 255 0
1.2427140 -0.9512870 -7.2896690 0 255 0
0.8326560 -0.8252860 -6.1795250 0 255 0
1.2251800 -0.9524110 -7.2414580 0 255 0
1.2855920 -0.9917850 -7.4050780 0 255 0
0.8340030 -0.8978750 -6.1849050 0 255 0
0.8668310 -0.7332790 -6.2675900 0 255 0
0.8512990 -0.7554530 -6.2261830 0 255 0
0.8328790 -0.8154500 -6.1788290 0 255 0
1.2640540 -0.9496990 -7.3438760 0 255 0
1.2462350 -0.9512310 -7.2958310 0 255 0
0.8338030 -0.8365290 -6.1810860 0 255 0
0.8466250 -0.9191250 -6.2179050 0 255 0
0.8744010 -0.7259120 -6.2866130 0 255 0
1.2494940 -0.9515780 -7.3022500 0 255 0
1.2289590 -0.9519530 -7.2473600 0 255 0
1.1987460 -0.9574970 -7.1655800 0 255 0
1.2849600 -0.9913680 -7.3998920 0 255 0
1.2853180 -1.0024960 -7.4004650 0 255 0
0.8389260 -0.8775560 -6.1953120 0 255 0
0.8398930 -0.8834480 -6.1965540 0 255 0
0.8434170 -0.9012850 -6.2073190 0 255 0
0.8439000 -0.9071270 -6.2082530 0 255 0
0.8440600 -0.9129300 -6.2089790 0 255 0
0.8754420 -0.7270540 -6.2887360 0 255 0
0.8658620 -0.7372760 -6.2622690 0 255 0
0.8532350 -0.7536540 -6.2291200 0 255 0
0.8504050 -0.7596360 -6.2210640 0 255 0
0.8408850 -0.7731720 -6.1952500 0 255 0
0.8385960 -0.7822620 -6.1888410 0 255 0
0.8363010 -0.7855320 -6.1832520 0 255 0
1.2832760 -0.9577840 -7.3925830 0 255 0
1.2318230 -0.9529040 -7.2541490 0 255 0
1.2219700 -0.9582860 -7.2272220 0 255 0
1.2878160 -0.9961050 -7.4043900 0 255 0
1.2872520 -1.0021220 -7.4050330 0 255 0
0.8748690 -0.7243420 -6.2844140 0 255 0
0.8488240 -0.7618950 -6.2142440 0 255 0
0.8365250 -0.7912560 -6.1819900 0 255 0
1.2529630 -0.9516020 -7.3084650 0 255 0
1.2579750 -0.9546350 -7.3228050 0 255 0
1.2349930 -0.9533850 -7.2606430 0 255 0
0.8777010 -0.7233550 -6.2901540 0 255 0
0.8650750 -0.7417750 -6.2574040 0 255 0
0.8567080 -0.7521980 -6.2340740 0 255 0
0.8414490 -0.7778550 -6.1941610 0 255 0
0.8369460 -0.7959780 -6.1812080 0 255 0
0.8739430 -0.7243950 -6.2785930 0 255 0
0.8634850 -0.7440480 -6.2505510 0 255 0
0.8602690 -0.7486040 -6.2430210 0 255 0
0.8476780 -0.7653650 -6.2085040 0 255 0
0.8371900 -0.8007640 -6.1808020 0 255 0
1.2617570 -0.9541760 -7.3287140 0 255 0
1.2031360 -0.9561020 -7.1708990 0 255 0
1.2056860 -0.9575210 -7.1779520 0 255 0
0.8784030 -0.7280560 -6.2887230 0 255 0
0.8571680 -0.7532280 -6.2330220 0 255 0
0.8384500 -0.7861010 -6.1828310 0 255 0
1.2725280 -0.9473690 -7.3547840 0 255 0
1.2572300 -0.9503910 -7.3138910 0 255 0
1.2164470 -0.9507400 -7.2039650 0 255 0
1.2863140 -0.9897450 -7.3937650 0 255 0
1.2887150 -0.9947560 -7.3984770 0 255 0
0.8439320 -0.8897230 -6.1997730 0 255 0
0.8583460 -0.7568080 -6.2333620 0 255 0
0.8468030 -0.7695930 -6.2034370 0 255 0
1.2399910 -0.9510480 -7.2653610 0 255 0
1.2094630 -0.9570640 -7.1838490 0 255 0
0.8399280 -0.8430070 -6.1856300 0 255 0
0.8396050 -0.8487380 -6.1860390 0 255 0
1.2875730 -0.9946490 -7.3935380 0 255 0
0.8400880 -0.8545650 -6.1869670 0 255 0
0.8770430 -0.7296140 -6.2812360 0 255 0
0.8460050 -0.7740360 -6.1985630 0 255 0
0.8429340 -0.7821960 -6.1911070 0 255 0
