-1.9484800 -3.6074700 -11.4540000 255 0 255
-2.0043600 -3.8013300 -11.7246000 255 0 255
-1.9838400 -3.7692000 -11.6180000 255 0 255
-1.9187900 -2.6288800 -11.6044000 255 0 255
-1.9227500 -2.6653100 -11.6086000 255 0 255
-1.9195000 -2.6651300 -11.5846000 255 0 255
-1.9208800 -2.6806000 -11.5853000 255 0 255
-1.9188900 -2.6877500 -11.5834000 255 0 255
-2.2376000 -3.8003200 -13.1380000 255 0 255
-2.2029000 -3.7675100 -12.9433000 255 0 255
-2.2062700 -3.8006300 -12.9601000 255 0 255
-1.9281400 -2.9749900 -11.5401000 255 0 255
-1.9280300 -2.9980000 -11.5411000 255 0 255
-2.1312200 -3.7062100 -12.5405000 255 0 255
-1.9357100 -3.2805100 -11.4909000 255 0 255
-2.0909700 -3.7711100 -12.2689000 255 0 255
-1.9321600 -3.2990700 -11.4764000 255 0 255
-2.0256300 -3.8397100 -11.8549000 255 0 255
-1.9529800 -3.6335200 -11.4838000 255 0 255
-1.9480300 -3.6313600 -11.4601000 255 0 255
-1.9839000 -3.7773300 -11.6371000 255 0 255
-1.9230100 -2.5998200 -11.6534000 255 0 255
-1.9177400 -2.6029800 -11.6139000 255 0 255
-1.9171000 -2.7091900 -11.5767000 255 0 255
-1.9136600 -2.7289300 -11.5625000 255 0 255
-2.2383900 -3.8073700 -13.1642000 255 0 255
-2.2090600 -3.7961800 -13.0010000 255 0 255
-1.9284700 -3.0216500 -11.5446000 255 0 255
-1.9288100 -3.0452000 -11.5476000 255 0 255
-1.9299200 -3.0696400 -11.5541000 255 0 255
-2.1137700 -3.7117500 -12.4495000 255 0 255
-1.9286300 -3.3175700 -11.4619000 255 0 255
-1.9271600 -3.3386700 -11.4567000 255 0 255
-2.0559000 -3.8315700 -12.0730000 255 0 255
-2.0495900 -3.8634400 -12.0052000 255 0 255
-2.0265400 -3.8426200 -11.8808000 255 0 255
-1.9364900 -3.5821900 -11.4269000 255 0 255
-2.0048900 -3.8153200 -11.7661000 255 0 255
-1.9840400 -3.7849800 -11.6569000 255 0 255
-1.9277900 -2.5307100 -11.7278000 255 0 255
-1.9301300 -2.6031000 -11.7018000 255 0 255
-1.9108500 -2.7492500 -11.5512000 255 0 255
-1.9093900 -2.7709000 -11.5460000 255 0 255
-2.2415900 -3.8016000 -13.2084000 255 0 255
-2.2130200 -3.7853100 -13.0510000 255 0 255
-2.2012600 -3.8050200 -12.9739000 255 0 255
-1.9312900 -3.0944200 -11.5618000 255 0 255
-1.9321100 -3.1185900 -11.5670000 255 0 255
-2.1124600 -3.7258900 -12.4630000 255 0 255
-2.0767500 -3.7717100 -12.2371000 255 0 255
-1.9248700 -3.3586700 -11.4478000 255 0 255
-2.0596100 -3.8169000 -12.1207000 255 0 255
-2.0279800 -3.8420900 -11.9107000 255 0 255
-1.9376500 -3.5809900 -11.4552000 255 0 255
-2.0056500 -3.8189100 -11.7908000 255 0 255
-1.9843800 -3.7911800 -11.6783000 255 0 255
-1.9495700 -3.7015400 -11.4930000 255 0 255
-1.9159700 -2.5482300 -11.6707000 255 0 255
-1.9075100 -2.7920800 -11.5389000 255 0 255
-2.2414300 -3.8138400 -13.2276000 255 0 255
-2.2147000 -3.7871800 -13.0839000 255 0 255
-1.9321700 -3.1418800 -11.5687000 255 0 255
-1.9333400 -3.1665200 -11.5755000 255 0 255
-1.9317900 -3.1878700 -11.5699000 255 0 255
-2.0813500 -3.7537300 -12.2853000 255 0 255
-1.9231400 -3.3793500 -11.4413000 255 0 255
-1.9230400 -3.4021700 -11.4423000 255 0 255
-1.9245900 -3.4271700 -11.4506000 255 0 255
-2.0289800 -3.8445300 -11.9374000 255 0 255
-2.0061400 -3.8244600 -11.8134000 255 0 255
-1.9512500 -3.6548300 -11.5267000 255 0 255
-1.9529100 -3.7064200 -11.5348000 255 0 255
-1.9087200 -2.5692300 -11.6367000 255 0 255
-1.9091900 -2.5839000 -11.6375000 255 0 255
-1.9060100 -2.8136300 -11.5336000 255 0 255
-1.9048000 -2.8354500 -11.5295000 255 0 255
-1.9331000 -3.2127100 -11.5773000 255 0 255
-1.9283400 -3.2300800 -11.5571000 255 0 255
-2.0801000 -3.7674000 -12.2988000 255 0 255
-2.0715800 -3.7582100 -12.2525000 255 0 255
-1.9259100 -3.4519000 -11.4579000 255 0 255
-1.9260500 -3.4750900 -11.4599000 255 0 255
-1.9271900 -3.4996400 -11.4665000 255 0 255
-2.0289500 -3.8538900 -11.9561000 255 0 255
-2.0068500 -3.8284800 -11.8379000 255 0 255
-1.9447800 -3.6287800 -11.5271000 255 0 255
-1.9518500 -3.6797900 -11.5448000 255 0 255
-1.9848900 -3.7962600 -11.7010000 255 0 255
-1.9640300 -3.7678000 -11.5908000 255 0 255
-1.9104500 -2.6084300 -11.6449000 255 0 255
-1.9038600 -2.8575500 -11.5267000 255 0 255
-2.2162500 -3.7897900 -13.1159000 255 0 255
-1.9039400 -2.8807400 -11.5286000 255 0 255
-1.9041700 -2.9040900 -11.5312000 255 0 255
-2.1079200 -3.7140800 -12.4975000 255 0 255
-1.9220100 -3.2454000 -11.5298000 255 0 255
-1.9289100 -3.5201400 -11.4832000 255 0 255
-2.0295200 -3.8593200 -11.9795000 255 0 255
-1.9354400 -3.5686800 -11.4986000 255 0 255
-2.0074600 -3.8331700 -11.8616000 255 0 255
-1.9855500 -3.8002000 -11.7250000 255 0 255
-1.9658000 -3.7631500 -11.6237000 255 0 255
-1.9004900 -2.6454800 -11.6020000 255 0 255
-2.2142600 -3.8119600 -13.1213000 255 0 255
-1.9043300 -2.9273800 -11.5334000 255 0 255
-1.9046200 -2.9508300 -11.5362000 255 0 255
-2.1106500 -3.7071000 -12.5386000 255 0 255
-1.9177800 -3.2632200 -11.5120000 255 0 255
-2.0300800 -3.8647700 -12.0029000 255 0 255
-2.0076100 -3.8411600 -11.8817000 255 0 255
-1.9862200 -3.8041500 -11.7492000 255 0 255
-1.9655600 -3.7734500 -11.6406000 255 0 255
-1.8959600 -2.6642900 -11.5826000 255 0 255
-1.8984000 -2.6899300 -11.5955000 255 0 255
-2.2137200 -3.8261500 -13.1376000 255 0 255
-2.1781800 -3.7878000 -12.9550000 255 0 255
-1.9051900 -2.9746000 -11.5403000 255 0 255
-1.9054200 -2.9980000 -11.5429000 255 0 255
-1.9052100 -3.0209200 -11.5434000 255 0 255
-2.1131100 -3.7018600 -12.5778000 255 0 255
-2.0616500 -3.7502800 -12.2588000 255 0 255
-1.9115200 -3.2783800 -11.4849000 255 0 255
-1.9057000 -3.2939700 -11.4599000 255 0 255
-2.0363100 -3.8324200 -12.0712000 255 0 255
-2.0083300 -3.8452300 -11.9063000 255 0 255
-1.9867300 -3.8092700 -11.7721000 255 0 255
-1.9653700 -3.7833600 -11.6578000 255 0 255
-1.8932400 -2.7079900 -11.5731000 255 0 255
-1.8910600 -2.7289700 -11.5646000 255 0 255
-2.2180800 -3.8135100 -13.1911000 255 0 255
-2.1935600 -3.7759700 -13.0629000 255 0 255
-1.9055400 -3.0444500 -11.5464000 255 0 255
-1.9068000 -3.0690900 -11.5537000 255 0 255
-2.0907300 -3.7382300 -12.4474000 255 0 255
-2.0615500 -3.7575900 -12.2793000 255 0 255
-1.9039800 -3.3147200 -11.4534000 255 0 255
-1.9030700 -3.3365000 -11.4507000 255 0 255
-2.0399100 -3.8177600 -12.1190000 255 0 255
-2.0084800 -3.8532600 -11.9265000 255 0 255
-1.9868900 -3.8168700 -11.7924000 255 0 255
-1.9658200 -3.7885900 -11.6803000 255 0 255
-1.9217200 -3.6553100 -11.4629000 255 0 255
-1.9456400 -3.7562800 -11.5746000 255 0 255
-1.8938300 -2.5936200 -11.6437000 255 0 255
-1.8905100 -2.6256500 -11.5986000 255 0 255
-1.8877200 -2.7487200 -11.5507000 255 0 255
-1.8852600 -2.7693200 -11.5408000 255 0 255
-2.1953500 -3.7769600 -13.0971000 255 0 255
-2.1807800 -3.7844300 -13.0160000 255 0 255
-1.9075900 -3.0932000 -11.5587000 255 0 255
-1.9081100 -3.1170200 -11.5626000 255 0 255
-1.9092200 -3.1415700 -11.5692000 255 0 255
-2.0608800 -3.7680900 -12.2963000 255 0 255
-1.9025200 -3.3587400 -11.4496000 255 0 255
-1.9015200 -3.3803800 -11.4465000 255 0 255
-2.0091100 -3.8580200 -11.9505000 255 0 255
-1.9872200 -3.8233300 -11.8140000 255 0 255
-1.9662400 -3.7940900 -11.7026000 255 0 255
-1.9474300 -3.7509300 -11.6082000 255 0 255
-1.9218000 -3.6789000 -11.4717000 255 0 255
-1.8958300 -2.5344000 -11.6971000 255 0 255
-1.8954000 -2.5550200 -11.6804000 255 0 255
-1.8946100 -2.5743400 -11.6620000 255 0 255
-1.8874300 -2.6390400 -11.6134000 255 0 255
-1.8828100 -2.7898700 -11.5310000 255 0 255
-2.2155200 -3.8313900 -13.2219000 255 0 255
-2.1954700 -3.7874000 -13.1185000 255 0 255
-1.9102600 -3.1660600 -11.5754000 255 0 255
-2.0860400 -3.7238700 -12.4846000 255 0 255
-1.9085200 -3.1871600 -11.5689000 255 0 255
-1.9014200 -3.4032100 -11.4474000 255 0 255
-1.9022300 -3.4272600 -11.4525000 255 0 255
-2.0098300 -3.8621400 -11.9754000 255 0 255
-1.9877200 -3.8286600 -11.8369000 255 0 255
-1.9666900 -3.7993300 -11.7252000 255 0 255
-1.9486300 -3.7501700 -11.6371000 255 0 255
-1.9233800 -3.7017300 -11.4881000 255 0 255
-1.8942200 -2.4841700 -11.7185000 255 0 255
-1.8991100 -2.5239800 -11.7275000 255 0 255
-1.8827500 -2.5157100 -11.6348000 255 0 255
-1.8854500 -2.5596700 -11.6335000 255 0 255
-1.8818800 -2.5796300 -11.6185000 255 0 255
-1.8813800 -2.8114600 -11.5259000 255 0 255
-1.8810600 -2.8342100 -11.5260000 255 0 255
-1.8793100 -2.8554100 -11.5194000 255 0 255
-2.1945500 -3.8036600 -13.1320000 255 0 255
-2.0900800 -3.7079800 -12.5367000 255 0 255
-1.9100200 -3.2122600 -11.5772000 255 0 255
-1.9053600 -3.2296900 -11.5573000 255 0 255
-2.0596300 -3.7817500 -12.3099000 255 0 255
-1.9008500 -3.4483600 -11.4476000 255 0 255
-1.9000600 -3.4702400 -11.4454000 255 0 255
-1.9003700 -3.4936300 -11.4482000 255 0 255
-2.0105600 -3.8662700 -12.0004000 255 0 255
-1.9019900 -3.5469600 -11.4339000 255 0 255
-1.9882100 -3.8340100 -11.8599000 255 0 255
-1.9671000 -3.8049900 -11.7475000 255 0 255
-1.9472900 -3.7687700 -11.6449000 255 0 255
-1.9258700 -3.7334800 -11.5236000 255 0 255
-1.9263400 -3.7355900 -11.5130000 255 0 255
-1.9208800 -3.7349100 -11.4853000 255 0 255
-1.8910300 -2.4505300 -11.7176000 255 0 255
-1.8814800 -2.6025300 -11.6182000 255 0 255
-1.8797000 -2.6241000 -11.6115000 255 0 255
-2.1946500 -3.8143000 -13.1533000 255 0 255
-1.8791900 -2.8783700 -11.5204000 255 0 255
-1.8790800 -2.9013200 -11.5213000 255 0 255
-2.0923800 -3.7032900 -12.5753000 255 0 255
-2.0702200 -3.7374400 -12.4172000 255 0 255
-1.8991000 -3.2450000 -11.5300000 255 0 255
-2.0195900 -3.8135600 -12.0928000 255 0 255
-2.0244700 -3.8391400 -12.1042000 255 0 255
-1.9002800 -3.5164800 -11.4491000 255 0 255
-1.9887100 -3.8393800 -11.8830000 255 0 255
-1.9076100 -3.5915300 -11.4831000 255 0 255
-1.9676500 -3.8096200 -11.7710000 255 0 255
-1.9177500 -3.6554700 -11.5157000 255 0 255
-1.9468800 -3.7802700 -11.6605000 255 0 255
-1.9248000 -3.7068200 -11.5337000 255 0 255
-1.9267800 -3.7403000 -11.5355000 255 0 255
-1.8773900 -2.6451100 -11.6022000 255 0 255
-1.8758900 -2.6668900 -11.5968000 255 0 255
-2.1958300 -3.8188200 -13.1831000 255 0 255
-2.1727000 -3.7743000 -13.0644000 255 0 255
-1.8788700 -2.9241800 -11.5219000 255 0 255
-1.8786400 -2.9470100 -11.5223000 255 0 255
-2.0694500 -3.7486100 -12.4339000 255 0 255
-1.8949100 -3.2628300 -11.5122000 255 0 255
-2.0329600 -3.8043600 -12.1979000 255 0 255
-2.0202100 -3.8186100 -12.1172000 255 0 255
-1.9029600 -3.5503400 -11.4761000 255 0 255
-1.9892100 -3.8447600 -11.9061000 255 0 255
-1.9681100 -3.8149200 -11.7938000 255 0 255
-1.9473100 -3.7854900 -11.6830000 255 0 255
-1.9272100 -3.7450300 -11.5581000 255 0 255
-1.9250900 -3.7633400 -11.5567000 255 0 255
-1.8703300 -2.6845600 -11.5724000 255 0 255
-2.1988700 -3.8130800 -13.2273000 255 0 255
-2.1966400 -3.8151600 -13.2075000 255 0 255
-2.1739200 -3.7782100 -13.0946000 255 0 255
-1.8807000 -2.9724600 -11.5334000 255 0 255
-1.8804400 -2.9952800 -11.5337000 255 0 255
-1.8809300 -3.0189900 -11.5374000 255 0 255
-2.0919400 -3.7162300 -12.5919000 255 0 255
-2.0415000 -3.7630300 -12.2716000 255 0 255
-1.8830600 -3.2707300 -11.4591000 255 0 255
-1.8805500 -3.2904600 -11.4490000 255 0 255
-1.9982800 -3.8636300 -11.9939000 255 0 255
-1.8940500 -3.5357900 -11.4515000 255 0 255
-1.9892300 -3.8536100 -11.9253000 255 0 255
-1.9685700 -3.8202300 -11.8167000 255 0 255
-1.9473900 -3.7933400 -11.7026000 255 0 255
-1.9017800 -3.6565900 -11.4641000 255 0 255
-1.9268000 -3.7564600 -11.5736000 255 0 255
-1.9071900 -3.7229200 -11.4708000 255 0 255
-1.8653400 -2.7026800 -11.5506000 255 0 255
-1.8650100 -2.7254800 -11.5506000 255 0 255
-2.1743500 -3.7867600 -13.1187000 255 0 255
-2.1567700 -3.7859700 -13.0124000 255 0 255
-1.8824500 -3.0439000 -11.5460000 255 0 255
-1.8839600 -3.0688600 -11.5545000 255 0 255
-1.8853000 -3.0936500 -11.5622000 255 0 255
-2.0460900 -3.7506700 -12.3426000 255 0 255
-2.0430800 -3.7608400 -12.3026000 255 0 255
-1.8780400 -3.3101400 -11.4389000 255 0 255
-1.8786300 -3.3338500 -11.4430000 255 0 255
-1.9898800 -3.8579400 -11.9499000 255 0 255
-1.9685600 -3.8290100 -11.8357000 255 0 255
-1.9479900 -3.7972800 -11.7267000 255 0 255
-1.9278600 -3.7563700 -11.6015000 255 0 255
-1.9070400 -3.7320300 -11.4885000 255 0 255
-1.8635900 -2.7471500 -11.5455000 255 0 255
-1.8611600 -2.7677300 -11.5357000 255 0 255
-2.1730000 -3.8055900 -13.1286000 255 0 255
-1.8861000 -3.1178100 -11.5674000 255 0 255
-1.8861500 -3.1411000 -11.5691000 255 0 255
-2.0648300 -3.7297200 -12.4766000 255 0 255
-2.0505700 -3.7323600 -12.3919000 255 0 255
-1.8794400 -3.3578700 -11.4482000 255 0 255
-1.8801500 -3.3817800 -11.4528000 255 0 255
-1.8792500 -3.4035300 -11.4501000 255 0 255
-1.9908400 -3.8602200 -11.9769000 255 0 255
-1.9690500 -3.8342000 -11.8589000 255 0 255
-1.9480700 -3.8051700 -11.7465000 255 0 255
-1.9287100 -3.7579200 -11.6278000 255 0 255
-1.9079400 -3.7327500 -11.5152000 255 0 255
-1.8587300 -2.7882800 -11.5259000 255 0 255
-1.8566600 -2.8091500 -11.5177000 255 0 255
-2.1714700 -3.8254100 -13.1372000 255 0 255
-1.8871900 -3.1656100 -11.5754000 255 0 255
-1.8853200 -3.1865300 -11.5682000 255 0 255
-2.0521900 -3.7300600 -12.4237000 255 0 255
-2.0358700 -3.7496400 -12.3240000 255 0 255
-1.8779500 -3.4247400 -11.4455000 255 0 255
-1.8768500 -3.4461900 -11.4418000 255 0 255
-1.9911400 -3.8671200 -11.9986000 255 0 255
-1.9697000 -3.8382500 -11.8835000 255 0 255
-1.9485900 -3.8098000 -11.7700000 255 0 255
-1.9283900 -3.7686900 -11.6442000 255 0 255
-1.9087400 -3.7342500 -11.5412000 255 0 255
-1.8636100 -2.5392900 -11.6578000 255 0 255
-1.8583300 -2.5323100 -11.6135000 255 0 255
-1.8586000 -2.5558400 -11.6164000 255 0 255
-1.8573900 -2.5779600 -11.6123000 255 0 255
-1.8564500 -2.8319900 -11.5182000 255 0 255
-1.8554400 -2.8539600 -11.5150000 255 0 255
-2.1726200 -3.8299400 -13.1669000 255 0 255
-2.0688800 -3.7230200 -12.5499000 255 0 255
-1.8845300 -3.2087700 -11.5660000 255 0 255
-2.0501000 -3.7485400 -12.4322000 255 0 255
-1.8810300 -3.2275800 -11.5512000 255 0 255
-2.0382700 -3.7429600 -12.3637000 255 0 255
-2.0194300 -3.7737600 -12.2296000 255 0 255
-2.0060600 -3.8440200 -12.1250000 255 0 255
-1.8748700 -3.4664000 -11.4341000 255 0 255
-1.9931500 -3.8620300 -12.0346000 255 0 255
-1.8745200 -3.4888500 -11.4339000 255 0 255
-1.8785600 -3.5130100 -11.4458000 255 0 255
-1.9703600 -3.8423100 -11.9082000 255 0 255
-1.9491900 -3.8137900 -11.7943000 255 0 255
-1.9279300 -3.7806100 -11.6593000 255 0 255
-1.9093300 -3.7375900 -11.5653000 255 0 255
-1.8643300 -2.4755500 -11.7052000 255 0 255
-1.8668800 -2.5069900 -11.7031000 255 0 255
-1.8652400 -2.5231600 -11.6804000 255 0 255
-1.8550900 -2.5990200 -11.6030000 255 0 255
-2.1749600 -3.8209200 -13.1983000 255 0 255
-2.1742100 -3.8319400 -13.2003000 255 0 255
-1.8561000 -2.8777700 -11.5196000 255 0 255
-1.8569800 -2.9018400 -11.5253000 255 0 255
-2.0690000 -3.7321700 -12.5711000 255 0 255
-2.0420000 -3.7273500 -12.4146000 255 0 255
-1.8761900 -3.2446100 -11.5302000 255 0 255
-1.8720500 -3.2624400 -11.5124000 255 0 255
-2.0220400 -3.7653000 -12.2673000 255 0 255
-1.9995100 -3.8265300 -12.1070000 255 0 255
-1.9807400 -3.8582700 -11.9979000 255 0 255
-1.8739700 -3.5110200 -11.4327000 255 0 255
-1.9710100 -3.8464000 -11.9330000 255 0 255
-1.9498000 -3.8177900 -11.8187000 255 0 255
-1.9283400 -3.7856700 -11.6820000 255 0 255
-1.9079400 -3.7568000 -11.5724000 255 0 255
-1.8977600 -3.7339400 -11.5226000 255 0 255
-1.8623100 -2.4460500 -11.7099000 255 0 255
-1.8533400 -2.6205600 -11.5964000 255 0 255
-1.8539000 -2.6443600 -11.6006000 255 0 255
-1.8524700 -2.6661800 -11.5954000 255 0 255
-2.1525600 -3.7791100 -13.0927000 255 0 255
-1.8557100 -2.9235100 -11.5209000 255 0 255
-1.8544500 -2.9451700 -11.5165000 255 0 255
-2.0668400 -3.7563000 -12.5736000 255 0 255
-2.0421000 -3.7364000 -12.4355000 255 0 255
-2.0230000 -3.7662900 -12.2948000 255 0 255
-2.0009100 -3.8259500 -12.1382000 255 0 255
-1.9712900 -3.8532600 -11.9546000 255 0 255
-1.9502700 -3.8229500 -11.8419000 255 0 255
-1.8956200 -3.6806000 -11.5427000 255 0 255
-1.8971800 -3.7093200 -11.5350000 255 0 255
-1.9086100 -3.7595000 -11.5974000 255 0 255
-1.8473000 -2.6841900 -11.5726000 255 0 255
-2.1520500 -3.7930600 -13.1093000 255 0 255
-1.8552900 -2.9692100 -11.5219000 255 0 255
-1.8553600 -2.9924000 -11.5238000 255 0 255
-1.8574000 -3.0179000 -11.5348000 255 0 255
-2.0440300 -3.7330900 -12.4717000 255 0 255
-1.8599200 -3.2698300 -11.4575000 255 0 255
-1.8565100 -3.2883300 -11.4430000 255 0 255
-1.9722000 -3.8555300 -11.9817000 255 0 255
-1.8694100 -3.5269300 -11.4478000 255 0 255
-1.9502400 -3.8317500 -11.8610000 255 0 255
-1.8778900 -3.5843000 -11.4733000 255 0 255
-1.9294800 -3.7935200 -11.7301000 255 0 255
-1.9097100 -3.7587600 -11.6261000 255 0 255
-1.8790400 -3.6561800 -11.4643000 255 0 255
-1.8997600 -3.7644000 -11.5616000 255 0 255
-1.8894100 -3.7229200 -11.4974000 255 0 255
-1.8422800 -2.7022200 -11.5504000 255 0 255
-1.8403700 -2.7233800 -11.5429000 255 0 255
-2.1522500 -3.8028300 -13.1317000 255 0 255
-2.1327600 -3.7875100 -13.0088000 255 0 255
-1.8592900 -3.0432800 -11.5452000 255 0 255
-1.8607600 -3.0682000 -11.5536000 255 0 255
-1.8627600 -3.0938000 -11.5645000 255 0 255
-2.0456100 -3.7322500 -12.5051000 255 0 255
-1.8537600 -3.3076600 -11.4317000 255 0 255
-1.8556500 -3.3330800 -11.4419000 255 0 255
-1.8569600 -3.3577800 -11.4494000 255 0 255
-1.9733200 -3.8564200 -12.0105000 255 0 255
-1.8640400 -3.5046800 -11.4406000 255 0 255
-1.9299000 -3.7986200 -11.7530000 255 0 255
-1.9103000 -3.7621600 -11.6505000 255 0 255
-1.8901800 -3.7243900 -11.5233000 255 0 255
-1.8389200 -2.7449800 -11.5376000 255 0 255
-1.8370800 -2.7661600 -11.5305000 255 0 255
-2.1511700 -3.8201900 -13.1437000 255 0 255
-2.1281700 -3.7768300 -13.0242000 255 0 255
-1.8643200 -3.1189100 -11.5733000 255 0 255
-1.8642300 -3.1420500 -11.5744000 255 0 255
-2.0472000 -3.7314000 -12.5387000 255 0 255
-1.8641400 -3.1651700 -11.5754000 255 0 255
-2.0151600 -3.7544100 -12.3174000 255 0 255
-1.8584300 -3.3827300 -11.4576000 255 0 255
-1.8567700 -3.4034500 -11.4513000 255 0 255
-1.9872400 -3.8446900 -12.1225000 255 0 255
-1.9743100 -3.8582400 -12.0384000 255 0 255
-1.9506900 -3.8371200 -11.8841000 255 0 255
-1.9298600 -3.8073500 -11.7720000 255 0 255
-1.9097700 -3.7745600 -11.6651000 255 0 255
-1.8909700 -3.7256600 -11.5496000 255 0 255
-1.8356800 -2.7877500 -11.5254000 255 0 255
-1.8335700 -2.8085600 -11.5170000 255 0 255
-2.1543300 -3.8216300 -13.1955000 255 0 255
-2.1515700 -3.8288000 -13.1678000 255 0 255
-2.1296400 -3.7786700 -13.0571000 255 0 255
-2.0465600 -3.7455300 -12.5536000 255 0 255
-1.8620500 -3.1858000 -11.5671000 255 0 255
-2.0475100 -3.7973000 -12.5245000 255 0 255
-2.0150900 -3.7643700 -12.3368000 255 0 255
-2.0026800 -3.7670400 -12.2636000 255 0 255
-1.9949700 -3.8057200 -12.1930000 255 0 255
-1.9801700 -3.8250300 -12.1080000 255 0 255
-1.8548500 -3.4237900 -11.4439000 255 0 255
-1.8525100 -3.4435100 -11.4344000 255 0 255
-1.9511800 -3.8421400 -11.9076000 255 0 255
-1.9302700 -3.8126500 -11.7948000 255 0 255
-1.9097100 -3.7832200 -11.6839000 255 0 255
-1.8907200 -3.7356600 -11.5666000 255 0 255
-1.8332000 -2.5300400 -11.6042000 255 0 255
-1.8322600 -2.5524000 -11.6013000 255 0 255
-1.8318000 -2.8296900 -11.5101000 255 0 255
-2.1530300 -3.8313100 -13.2005000 255 0 255
-1.8308000 -2.8516400 -11.5069000 255 0 255
-2.1311600 -3.7803000 -13.0904000 255 0 255
-2.0448200 -3.7671100 -12.5592000 255 0 255
-1.8587100 -3.2048100 -11.5529000 255 0 255
-1.8570000 -3.2258200 -11.5464000 255 0 255
-2.0174100 -3.7577500 -12.3766000 255 0 255
-2.0028500 -3.7724100 -12.2863000 255 0 255
-1.9811900 -3.8268000 -12.1364000 255 0 255
-1.8516400 -3.4652200 -11.4317000 255 0 255
-1.8506100 -3.4867000 -11.4283000 255 0 255
-1.9516600 -3.8472400 -11.9312000 255 0 255
-1.9306800 -3.8179700 -11.8177000 255 0 255
-1.9100800 -3.7884600 -11.7065000 255 0 255
-1.8899100 -3.7502600 -11.5787000 255 0 255
-1.8325400 -2.5257400 -11.6382000 255 0 255
-1.8323800 -2.5471200 -11.6227000 255 0 255
-1.8315900 -2.5750100 -11.5997000 255 0 255
-1.8301200 -2.5968200 -11.5943000 255 0 255
-1.8319300 -2.8759700 -11.5138000 255 0 255
-2.1293300 -3.8021900 -13.0961000 255 0 255
-1.8327500 -2.8999700 -11.5192000 255 0 255
-2.0210300 -3.7422200 -12.4276000 255 0 255
-1.8532800 -3.2442200 -11.5304000 255 0 255
-1.8491800 -3.2620400 -11.5126000 255 0 255
-1.9651100 -3.8532100 -12.0563000 255 0 255
-1.8533500 -3.5081600 -11.4502000 255 0 255
-1.8499200 -3.5086600 -11.4265000 255 0 255
-1.9310900 -3.8233000 -11.8407000 255 0 255
-1.9104500 -3.7937000 -11.7292000 255 0 255
-1.8899300 -3.7580400 -11.5982000 255 0 255
-1.8704000 -3.7251300 -11.4942000 255 0 255
-1.8328100 -2.4606200 -11.6835000 255 0 255
-1.8342900 -2.4881900 -11.6762000 255 0 255
-1.8347600 -2.5119500 -11.6638000 255 0 255
-1.8278600 -2.6178200 -11.5851000 255 0 255
-1.8295200 -2.6427000 -11.5947000 255 0 255
-1.8264000 -2.6627800 -11.5813000 255 0 255
-2.1304400 -3.8063700 -13.1262000 255 0 255
-2.1111400 -3.7590300 -13.0128000 255 0 255
-1.8313100 -2.9214100 -11.5139000 255 0 255
-1.8293100 -2.9421800 -11.5060000 255 0 255
-2.0464100 -3.7663600 -12.5930000 255 0 255
-2.0234000 -3.7354600 -12.4680000 255 0 255
-1.8431200 -3.2772000 -11.4855000 255 0 255
-1.9681300 -3.8411700 -12.0969000 255 0 255
-1.9529200 -3.8554500 -11.9810000 255 0 255
-1.9315000 -3.8286500 -11.8638000 255 0 255
-1.9108300 -3.7989700 -11.7519000 255 0 255
-1.8904300 -3.7618900 -11.6219000 255 0 255
-1.8710700 -3.7270700 -11.5197000 255 0 255
-1.8647300 -3.7353600 -11.4828000 255 0 255
-1.8339400 -2.4206100 -11.7185000 255 0 255
-1.8318300 -2.4349700 -11.6933000 255 0 255
-1.8229500 -2.6824600 -11.5664000 255 0 255
-2.1313300 -3.8118900 -13.1545000 255 0 255
-1.8297600 -2.9657600 -11.5096000 255 0 255
-1.8320100 -2.9914900 -11.5218000 255 0 255
-1.8343600 -3.0173800 -11.5345000 255 0 255
-2.0244800 -3.7376000 -12.4977000 255 0 255
-1.9926900 -3.7719700 -12.2954000 255 0 255
-1.8364300 -3.2914100 -11.4555000 255 0 255
-1.8337100 -3.3107500 -11.4442000 255 0 255
-1.9711700 -3.8290100 -12.1378000 255 0 255
-1.9538600 -3.8572700 -12.0087000 255 0 255
-1.9319100 -3.8340100 -11.8869000 255 0 255
-1.9112000 -3.8042500 -11.7747000 255 0 255
-1.8904500 -3.7697000 -11.6415000 255 0 255
-1.8549600 -3.6537900 -11.4583000 255 0 255
-1.8686000 -3.7077400 -11.5317000 255 0 255
-1.8712000 -3.7336100 -11.5403000 255 0 255
-1.8696700 -3.7344500 -11.5217000 255 0 255
-1.8258200 -2.4510200 -11.6738000 255 0 255
-1.8244700 -2.4732000 -11.6689000 255 0 255
-1.8192000 -2.7017400 -11.5500000 255 0 255
-1.8178000 -2.7234100 -11.5449000 255 0 255
-2.1353600 -3.8139200 -13.2036000 255 0 255
-2.1322300 -3.8174300 -13.1829000 255 0 255
-1.8345000 -3.0406800 -11.5367000 255 0 255
-1.8359000 -3.0655200 -11.5448000 255 0 255
-1.8384400 -3.0917900 -11.5584000 255 0 255
-1.8396500 -3.1164900 -11.5657000 255 0 255
-2.0248600 -3.7447400 -12.5213000 255 0 255
-1.9943900 -3.7691400 -12.3303000 255 0 255
-1.8362300 -3.3370900 -11.4575000 255 0 255
-1.8361300 -3.3599300 -11.4584000 255 0 255
-1.8373400 -3.3845800 -11.4656000 255 0 255
-1.9716600 -3.8321900 -12.1623000 255 0 255
-1.9667500 -3.8209400 -12.1281000 255 0 255
-1.9551200 -3.8567700 -12.0394000 255 0 255
-1.9318800 -3.8428500 -11.9061000 255 0 255
-1.8482200 -3.5770900 -11.4636000 255 0 255
-1.9115800 -3.8095500 -11.7975000 255 0 255
-1.8527700 -3.6183300 -11.4705000 255 0 255
-1.8907300 -3.7754000 -11.6634000 255 0 255
-1.8714900 -3.7389500 -11.5623000 255 0 255
-1.8788900 -3.7716200 -11.5891000 255 0 255
-1.8154100 -2.7440200 -11.5351000 255 0 255
-1.8130400 -2.7645800 -11.5253000 255 0 255
-2.1317600 -3.8311900 -13.2000000 255 0 255
-2.1066900 -3.7898200 -13.0413000 255 0 255
-1.8411900 -3.1416300 -11.5745000 255 0 255
-2.0260300 -3.7464200 -12.5518000 255 0 255
-1.8410900 -3.1647500 -11.5755000 255 0 255
-1.9971800 -3.7586300 -12.3748000 255 0 255
-1.9836500 -3.7730900 -12.2838000 255 0 255
-1.8354000 -3.4049100 -11.4579000 255 0 255
-1.8332100 -3.4248500 -11.4490000 255 0 255
-1.9323200 -3.8480800 -11.9295000 255 0 255
-1.9115300 -3.8183100 -11.8166000 255 0 255
-1.8909500 -3.7816000 -11.6849000 255 0 255
-1.8713200 -3.7481400 -11.5802000 255 0 255
-1.8108100 -2.7852500 -11.5162000 255 0 255
-1.8094300 -2.8068100 -11.5111000 255 0 255
-2.1081100 -3.7916900 -13.0742000 255 0 255
-2.0243100 -3.7679900 -12.5574000 255 0 255
-1.8379900 -3.1840600 -11.5623000 255 0 255
-1.8345600 -3.2029000 -11.5475000 255 0 255
-1.8298900 -3.4431800 -11.4348000 255 0 255
-1.8296900 -3.4658300 -11.4352000 255 0 255
-1.9329100 -3.8521800 -11.9543000 255 0 255
-1.9119300 -3.8234800 -11.8397000 255 0 255
-1.8911800 -3.7878200 -11.7064000 255 0 255
-1.8713200 -3.7558800 -11.5997000 255 0 255
-1.8075800 -2.5505100 -11.5939000 255 0 255
-1.8076300 -2.8278700 -11.5041000 255 0 255
-1.8065200 -2.8496900 -11.5003000 255 0 255
-2.1073000 -3.8074700 -13.0882000 255 0 255
-2.0335200 -3.7145900 -12.6578000 255 0 255
-2.0035400 -3.7323700 -12.4711000 255 0 255
-1.8308800 -3.2213400 -11.5315000 255 0 255
-1.9637300 -3.8199900 -12.1745000 255 0 255
-1.8294300 -3.4884100 -11.4355000 255 0 255
-1.9335000 -3.8562900 -11.9793000 255 0 255
-1.8284700 -3.5099700 -11.4323000 255 0 255
-1.9124800 -3.8275100 -11.8643000 255 0 255
-1.8914000 -3.7940500 -11.7280000 255 0 255
-1.8715600 -3.7617000 -11.6214000 255 0 255
-1.8515500 -3.7259600 -11.4926000 255 0 255
-1.8069900 -2.5731700 -11.5926000 255 0 255
-1.8050100 -2.5944400 -11.5847000 255 0 255
-1.8068200 -2.8730600 -11.5033000 255 0 255
-2.1074500 -3.8172400 -13.1105000 255 0 255
-2.0870800 -3.7605800 -13.0092000 255 0 255
-1.8072600 -2.8966100 -11.5069000 255 0 255
-2.0339900 -3.7213000 -12.6826000 255 0 255
-2.0046600 -3.7340100 -12.5014000 255 0 255
-1.8284000 -3.2412600 -11.5212000 255 0 255
-1.8259300 -3.2611400 -11.5109000 255 0 255
-1.9702500 -3.7811200 -12.2523000 255 0 255
-1.9344000 -3.8581100 -12.0070000 255 0 255
-1.8289900 -3.5336700 -11.4362000 255 0 255
-1.9130300 -3.8315600 -11.8889000 255 0 255
-1.8287100 -3.5562200 -11.4363000 255 0 255
-1.8917700 -3.7991500 -11.7509000 255 0 255
-1.8717600 -3.7677800 -11.6428000 255 0 255
-1.8521800 -3.7279000 -11.5180000 255 0 255
-1.8041100 -2.5217500 -11.6313000 255 0 255
-1.8028500 -2.5388800 -11.6102000 255 0 255
-1.8040200 -2.6166600 -11.5815000 255 0 255
-1.8043300 -2.6401900 -11.5846000 255 0 255
-1.8027000 -2.6617400 -11.5784000 255 0 255
-2.1099200 -3.8128000 -13.1525000 255 0 255
-1.8058300 -2.9180300 -11.5017000 255 0 255
-1.8044100 -2.9394200 -11.4964000 255 0 255
-2.0064800 -3.7306700 -12.5381000 255 0 255
-1.8203200 -3.2768100 -11.4857000 255 0 255
-1.9709300 -3.7852500 -12.2785000 255 0 255
-1.9534400 -3.8287500 -12.1643000 255 0 255
-1.9371400 -3.8460000 -12.0513000 255 0 255
-1.9135000 -3.8362800 -11.9129000 255 0 255
-1.8922800 -3.8031200 -11.7752000 255 0 255
-1.8717500 -3.7757400 -11.6623000 255 0 255
-1.8521900 -3.7353700 -11.5376000 255 0 255
-1.8034900 -2.4281100 -11.6769000 255 0 255
-1.8041200 -2.4998300 -11.6460000 255 0 255
-1.7999500 -2.6820900 -11.5667000 255 0 255
-1.7985100 -2.7037700 -11.5613000 255 0 255
-2.1130400 -3.8044700 -13.2002000 255 0 255
-1.8045500 -2.9626300 -11.4986000 255 0 255
-1.8067800 -2.9883200 -11.5108000 255 0 255
-1.8066600 -3.0112600 -11.5117000 255 0 255
-2.0072600 -3.7348300 -12.5656000 255 0 255
-1.9736000 -3.7748600 -12.3225000 255 0 255
-1.8147500 -3.2924100 -11.4607000 255 0 255
-1.8142600 -3.3147300 -11.4598000 255 0 255
-1.8200100 -3.3455400 -11.4886000 255 0 255
-1.9445300 -3.8209200 -12.1275000 255 0 255
-1.9135600 -3.8443100 -11.9331000 255 0 255
-1.8927900 -3.8071000 -11.7995000 255 0 255
-1.8720700 -3.7809600 -11.6848000 255 0 255
-1.8517600 -3.7467900 -11.5531000 255 0 255
-1.8343400 -3.6971900 -11.4673000 255 0 255
-1.8040200 -2.4114500 -11.7044000 255 0 255
-1.8007900 -2.4214200 -11.6733000 255 0 255
-1.8013600 -2.4495700 -11.6682000 255 0 255
-1.7957700 -2.7240300 -11.5496000 255 0 255
-1.8078400 -3.0357800 -11.5190000 255 0 255
-2.0220900 -3.7400200 -12.6779000 255 0 255
-1.8116500 -3.0635300 -11.5387000 255 0 255
-1.8133600 -3.0888100 -11.5485000 255 0 255
-1.8164000 -3.1157800 -11.5646000 255 0 255
-2.0059200 -3.7539700 -12.5743000 255 0 255
-1.9769600 -3.7595000 -12.3729000 255 0 255
-1.8147000 -3.3613200 -11.4648000 255 0 255
-1.8198000 -3.3913900 -11.4905000 255 0 255
-1.8182000 -3.4122200 -11.4843000 255 0 255
-1.9141200 -3.8484100 -11.9580000 255 0 255
-1.8932200 -3.8117500 -11.8232000 255 0 255
-1.8723800 -3.7861900 -11.7074000 255 0 255
-1.8333800 -3.6774200 -11.4959000 255 0 255
-1.8521100 -3.7512700 -11.5760000 255 0 255
-1.8416000 -3.7350400 -11.5208000 255 0 255
-1.8324400 -3.7218700 -11.4687000 255 0 255
-1.8366600 -3.7355900 -11.4815000 255 0 255
-1.8087200 -2.3625100 -11.7726000 255 0 255
-1.8096900 -2.3882600 -11.7627000 255 0 255
-1.8055800 -2.3951800 -11.7271000 255 0 255
-1.7972500 -2.4691400 -11.6498000 255 0 255
-1.7951300 -2.4905100 -11.6411000 255 0 255
-1.7941800 -2.5161800 -11.6131000 255 0 255
-1.7930400 -2.7442500 -11.5380000 255 0 255
-1.7903200 -2.7644100 -11.5264000 255 0 255
-2.0221500 -3.7465000 -12.7010000 255 0 255
-1.8181600 -3.1412100 -11.5746000 255 0 255
-2.0059900 -3.7631600 -12.5956000 255 0 255
-1.8180600 -3.1643300 -11.5756000 255 0 255
-1.9803600 -3.7439700 -12.4239000 255 0 255
-1.9477200 -3.7922800 -12.2070000 255 0 255
-1.8169800 -3.4335600 -11.4800000 255 0 255
-1.8182000 -3.4583300 -11.4872000 255 0 255
-1.9141800 -3.8564800 -11.9783000 255 0 255
-1.8143100 -3.5513900 -11.4328000 255 0 255
-1.8231000 -3.6110900 -11.4607000 255 0 255
-1.8726100 -3.7921900 -11.7293000 255 0 255
-1.8525400 -3.7551100 -11.5997000 255 0 255
-1.8328600 -3.7254200 -11.4923000 255 0 255
-1.7877900 -2.7847300 -11.5157000 255 0 255
-1.7854500 -2.8052100 -11.5060000 255 0 255
-1.9838000 -3.7282800 -12.4754000 255 0 255
-1.8137000 -3.1819900 -11.5562000 255 0 255
-1.8080900 -3.1979500 -11.5307000 255 0 255
-1.9502600 -3.7819900 -12.2505000 255 0 255
-1.8116000 -3.4719800 -11.4573000 255 0 255
-1.8102100 -3.4929700 -11.4521000 255 0 255
-1.9149500 -3.8589600 -12.0052000 255 0 255
-1.8937700 -3.8237400 -11.8678000 255 0 255
-1.8726300 -3.7999900 -11.7492000 255 0 255
-1.8527100 -3.7612600 -11.6210000 255 0 255
-1.8330000 -3.7314900 -11.5134000 255 0 255
-1.7856900 -2.5280600 -11.5982000 255 0 255
-1.7855500 -2.5511700 -11.5992000 255 0 255
-1.7839200 -2.5728100 -11.5929000 255 0 255
-1.7831200 -2.8256500 -11.4962000 255 0 255
-1.7817600 -2.8471300 -11.4912000 255 0 255
-2.0885200 -3.8137100 -13.1506000 255 0 255
-2.0124800 -3.7272500 -12.6743000 255 0 255
-1.9862400 -3.7199200 -12.5181000 255 0 255
-1.8056400 -3.2178900 -11.5204000 255 0 255
-1.8031900 -3.2377900 -11.5101000 255 0 255
-1.9512300 -3.7837000 -12.2796000 255 0 255
-1.9430400 -3.7765000 -12.2196000 255 0 255
-1.9161100 -3.8584700 -12.0358000 255 0 255
-1.8117000 -3.5251300 -11.4718000 255 0 255
-1.8067500 -3.5109500 -11.4370000 255 0 255
-1.8093700 -3.5377300 -11.4509000 255 0 255
-1.8938100 -3.8317400 -11.8879000 255 0 255
-1.8731100 -3.8039600 -11.7735000 255 0 255
-1.8532800 -3.7639800 -11.6462000 255 0 255
-1.8342000 -3.7279100 -11.5448000 255 0 255
-1.7820200 -2.5941400 -11.5852000 255 0 255
-1.7805800 -2.6159000 -11.5798000 255 0 255
-2.0915500 -3.8053800 -13.1982000 255 0 255
-1.7817700 -2.8701700 -11.4928000 255 0 255
-1.7818300 -2.8932600 -11.4947000 255 0 255
-1.9873200 -3.7215500 -12.5487000 255 0 255
-1.7999700 -3.2566100 -11.4962000 255 0 255
-1.9534900 -3.7757300 -12.3207000 255 0 255
-1.8942500 -3.8364600 -11.9119000 255 0 255
-1.8735900 -3.8079400 -11.7978000 255 0 255
-1.8531700 -3.7726300 -11.6649000 255 0 255
-1.8336600 -3.7402400 -11.5593000 255 0 255
-1.7800600 -2.6385700 -11.5789000 255 0 255
-1.7788000 -2.6604800 -11.5743000 255 0 255
-1.7815300 -2.9159400 -11.4947000 255 0 255
-1.7787700 -2.9357200 -11.4829000 255 0 255
-2.0030300 -3.7357700 -12.6811000 255 0 255
-1.9891100 -3.7181600 -12.5857000 255 0 255
-1.9567400 -3.7603700 -12.3711000 255 0 255
-1.7975300 -3.2764200 -11.4859000 255 0 255
-1.7954900 -3.2967100 -11.4776000 255 0 255
-1.7973200 -3.3222400 -11.4879000 255 0 255
-1.9223700 -3.8201800 -12.1284000 255 0 255
-1.9094900 -3.8469900 -12.0303000 255 0 255
-1.8947700 -3.8405400 -11.9367000 255 0 255
-1.8740700 -3.8119300 -11.8223000 255 0 255
-1.8532300 -3.7798200 -11.6853000 255 0 255
-1.8324500 -3.7586600 -11.5673000 255 0 255
-1.7772700 -2.6820600 -11.5684000 255 0 255
-1.7752000 -2.7030600 -11.5599000 255 0 255
-1.7786500 -2.9585900 -11.4839000 255 0 255
-1.7816000 -2.9851600 -11.4998000 255 0 255
-2.0040900 -3.7361900 -12.7113000 255 0 255
-1.7761100 -3.0015400 -11.4746000 255 0 255
-1.9895100 -3.7248300 -12.6102000 255 0 255
-1.9593800 -3.7497800 -12.4160000 255 0 255
-1.8010900 -3.3504900 -11.5075000 255 0 255
-1.8009900 -3.3734500 -11.5084000 255 0 255
-1.8008800 -3.3964200 -11.5094000 255 0 255
-1.8953000 -3.8446300 -11.9616000 255 0 255
-1.8745500 -3.8159400 -11.8468000 255 0 255
-1.8534000 -3.7860400 -11.7068000 255 0 255
-1.8328100 -3.7628400 -11.5906000 255 0 255
-1.8130700 -3.7351000 -11.4813000 255 0 255
-1.7748400 -2.4461700 -11.6522000 255 0 255
-1.7750600 -2.5152400 -11.6210000 255 0 255
-1.7728100 -2.7236600 -11.5498000 255 0 255
-1.7823900 -3.0322400 -11.5067000 255 0 255
-1.7854900 -3.0591600 -11.5233000 255 0 255
-1.7888700 -3.0864900 -11.5412000 255 0 255
-1.7910800 -3.1124500 -11.5535000 255 0 255
-1.9603800 -3.7514500 -12.4460000 255 0 255
-1.9287500 -3.7859500 -12.2139000 255 0 255
-1.9202700 -3.7949300 -12.1696000 255 0 255
-1.8007800 -3.4193900 -11.5104000 255 0 255
-1.8006800 -3.4423700 -11.5113000 255 0 255
-1.8958300 -3.8487400 -11.9866000 255 0 255
-1.8750400 -3.8199600 -11.8714000 255 0 255
-1.8540300 -3.7883300 -11.7328000 255 0 255
-1.8329600 -3.7689900 -11.6119000 255 0 255
-1.8124800 -3.7478000 -11.4953000 255 0 255
-1.7711800 -2.4129300 -11.6602000 255 0 255
-1.7711600 -2.4347400 -11.6453000 255 0 255
-1.7728700 -2.4676800 -11.6442000 255 0 255
-1.7700000 -2.4882900 -11.6316000 255 0 255
-1.7690000 -2.5103100 -11.6050000 255 0 255
-1.7701100 -2.7438800 -11.5382000 255 0 255
-1.7676700 -2.7643200 -11.5279000 255 0 255
-2.0747100 -3.8013500 -13.1808000 255 0 255
-2.0037500 -3.7448900 -12.7318000 255 0 255
-1.9917100 -3.7281400 -12.6724000 255 0 255
-1.7933000 -3.1384700 -11.5658000 255 0 255
-1.9657200 -3.7208100 -12.5163000 255 0 255
-1.7950300 -3.1639100 -11.5757000 255 0 255
-1.9309000 -3.7780300 -12.2545000 255 0 255
-1.9231300 -3.7824200 -12.2114000 255 0 255
-1.7967000 -3.4597900 -11.4936000 255 0 255
-1.7946600 -3.4799400 -11.4853000 255 0 255
-1.8960100 -3.8556400 -12.0084000 255 0 255
-1.8753900 -3.8251600 -11.8948000 255 0 255
-1.8540200 -3.7962200 -11.7526000 255 0 255
-1.8342500 -3.7648200 -11.6445000 255 0 255
-1.8106300 -3.7228700 -11.5056000 255 0 255
-1.8135100 -3.7453000 -11.5254000 255 0 255
-1.7772300 -2.3697600 -11.7356000 255 0 255
-1.7715600 -2.3704900 -11.6916000 255 0 255
-1.7722000 -2.3948300 -11.6801000 255 0 255
-1.7663600 -2.5080900 -11.6153000 255 0 255
-1.7631200 -2.5282000 -11.6010000 255 0 255
-1.7650300 -2.7845000 -11.5165000 255 0 255
-1.7620500 -2.8042300 -11.5035000 255 0 255
-2.0765500 -3.7991400 -13.2170000 255 0 255
-1.9920700 -3.7352300 -12.6967000 255 0 255
-1.9670900 -3.7199300 -12.5500000 255 0 255
-1.7907400 -3.1816100 -11.5564000 255 0 255
-1.7848100 -3.1970500 -11.5290000 255 0 255
-1.9330800 -3.7700500 -12.2954000 255 0 255
-1.8753000 -3.8340100 -11.9140000 255 0 255
-1.7870300 -3.5538300 -11.4340000 255 0 255
-1.8542500 -3.8020300 -11.7748000 255 0 255
-1.7886300 -3.5826000 -11.4269000 255 0 255
-1.8337600 -3.7767600 -11.6596000 255 0 255
-1.8065200 -3.6828600 -11.5005000 255 0 255
-1.7802900 -2.3370300 -11.7812000 255 0 255
-1.7812600 -2.3627800 -11.7713000 255 0 255
-1.7611800 -2.5495300 -11.5930000 255 0 255
-1.7592000 -2.5707900 -11.5849000 255 0 255
-1.7593900 -2.8242500 -11.4920000 255 0 255
-1.7567200 -2.8442200 -11.4805000 255 0 255
-1.9839300 -3.7250500 -12.6612000 255 0 255
-1.7808300 -3.2149600 -11.5113000 255 0 255
-1.7778400 -3.2340700 -11.4982000 255 0 255
-1.9340100 -3.7717500 -12.3248000 255 0 255
-1.8999400 -3.8129100 -12.0942000 255 0 255
-1.8938300 -3.8280900 -12.0489000 255 0 255
-1.7819500 -3.4882200 -11.4389000 255 0 255
-1.8756400 -3.8394000 -11.9373000 255 0 255
-1.7846600 -3.5217300 -11.4373000 255 0 255
-1.8542800 -3.8097000 -11.7951000 255 0 255
-1.8334000 -3.7875500 -11.6760000 255 0 255
-1.7971000 -3.6942300 -11.4688000 255 0 255
-1.8122800 -3.7712600 -11.5529000 255 0 255
-1.7583300 -2.5931300 -11.5822000 255 0 255
-1.7571100 -2.6150800 -11.5778000 255 0 255
-2.0674200 -3.8339100 -13.1941000 255 0 255
-1.7563500 -2.8667800 -11.4802000 255 0 255
-1.7552100 -2.8884500 -11.4762000 255 0 255
-1.9915400 -3.7584800 -12.7340000 255 0 255
-1.9833800 -3.7348200 -12.6804000 255 0 255
-1.9684700 -3.7190500 -12.5838000 255 0 255
-1.9390700 -3.7416100 -12.3933000 255 0 255
-1.7765000 -3.2553400 -11.4932000 255 0 255
-1.7747400 -3.2760400 -11.4861000 255 0 255
-1.9085600 -3.7803200 -12.1889000 255 0 255
-1.7755000 -3.4385600 -11.4218000 255 0 255
-1.8759700 -3.8448200 -11.9606000 255 0 255
-1.8548300 -3.8127700 -11.8205000 255 0 255
-1.8335500 -3.7937700 -11.6975000 255 0 255
-1.8124000 -3.7774000 -11.5741000 255 0 255
-1.7957800 -3.7141300 -11.4752000 255 0 255
-1.7561300 -2.6372800 -11.5746000 255 0 255
-1.7550100 -2.6593000 -11.5707000 255 0 255
-2.0470200 -3.7860300 -13.1154000 255 0 255
-1.7538200 -2.9098000 -11.4710000 255 0 255
-1.7537000 -2.9326300 -11.4719000 255 0 255
-1.7543400 -2.9563900 -11.4766000 255 0 255
-1.9695100 -3.7206800 -12.6147000 255 0 255
-1.9393200 -3.7486900 -12.4166000 255 0 255
-1.9085400 -3.7484800 -12.2184000 255 0 255
-1.7733600 -3.2972000 -11.4809000 255 0 255
-1.7732500 -3.3200900 -11.4818000 255 0 255
-1.8765000 -3.8486600 -11.9859000 255 0 255
-1.8552800 -3.8167800 -11.8451000 255 0 255
-1.8349800 -3.7885100 -11.7318000 255 0 255
-1.8120300 -3.7881200 -11.5903000 255 0 255
-1.7519200 -2.3993600 -11.6505000 255 0 255
-1.7497000 -2.4334800 -11.6257000 255 0 255
-1.7536900 -2.6810900 -11.5658000 255 0 255
-1.7521100 -2.7025800 -11.5596000 255 0 255
-1.7534600 -2.9783100 -11.4739000 255 0 255
-1.7585300 -3.0306000 -11.5019000 255 0 255
-1.9400300 -3.7523300 -12.4442000 255 0 255
-1.9109000 -3.7789000 -12.2527000 255 0 255
-1.7693300 -3.3376800 -11.4642000 255 0 255
-1.7685900 -3.3596500 -11.4621000 255 0 255
-1.8770300 -3.8525500 -12.0113000 255 0 255
-1.8554700 -3.8231200 -11.8670000 255 0 255
-1.8346200 -3.7993700 -11.7483000 255 0 255
-1.8115400 -3.7999800 -11.6053000 255 0 255
-1.7504800 -2.4213900 -11.6450000 255 0 255
-1.7523700 -2.4484600 -11.6520000 255 0 255
-1.7498500 -2.7233000 -11.5500000 255 0 255
-1.7490900 -2.7456100 -11.5479000 255 0 255
-2.0527600 -3.8167700 -13.1926000 255 0 255
-1.9720400 -3.7209400 -12.6808000 255 0 255
-1.7495600 -2.9965200 -11.4562000 255 0 255
-1.7607000 -3.0563900 -11.5141000 255 0 255
-1.7624900 -3.0817500 -11.5244000 255 0 255
-1.7658200 -3.1091200 -11.5423000 255 0 255
-1.9461700 -3.7141800 -12.5237000 255 0 255
-1.7687800 -3.1361000 -11.5584000 255 0 255
-1.9113600 -3.7839900 -12.2778000 255 0 255
-1.7665800 -3.3798200 -11.4538000 255 0 255
-1.7626900 -3.3972500 -11.4363000 255 0 255
-1.8703700 -3.8552600 -11.9908000 255 0 255
-1.8561100 -3.8255100 -11.8936000 255 0 255
-1.8347700 -3.8056400 -11.7700000 255 0 255
-1.8127600 -3.7959200 -11.6378000 255 0 255
-1.7476200 -2.4653600 -11.6341000 255 0 255
-1.7461900 -2.4873100 -11.6286000 255 0 255
-1.7457800 -2.7650800 -11.5331000 255 0 255
-2.0480700 -3.8105100 -13.1897000 255 0 255
-2.0514600 -3.8314700 -13.2072000 255 0 255
-1.9723500 -3.7281700 -12.7050000 255 0 255
-1.9459200 -3.7253300 -12.5425000 255 0 255
-1.7698200 -3.1606700 -11.5651000 255 0 255
-1.7665000 -3.1795400 -11.5503000 255 0 255
-1.9132800 -3.7774700 -12.3171000 255 0 255
-1.7625900 -3.4200500 -11.4373000 255 0 255
-1.7662700 -3.4483400 -11.4567000 255 0 255
-1.7680700 -3.4739700 -11.4669000 255 0 255
-1.7736900 -3.5052800 -11.4958000 255 0 255
-1.8564100 -3.8308900 -11.9168000 255 0 255
-1.8360900 -3.8015400 -11.8035000 255 0 255
-1.8128800 -3.8021300 -11.6592000 255 0 255
-1.7428500 -2.5073600 -11.6136000 255 0 255
-1.7388900 -2.5267100 -11.5954000 255 0 255
-1.7420400 -2.7840000 -11.5161000 255 0 255
-1.7397500 -2.8044700 -11.5064000 255 0 255
-1.9712200 -3.7461200 -12.7156000 255 0 255
-1.9462000 -3.7324800 -12.5662000 255 0 255
-1.7619100 -3.1966700 -11.5293000 255 0 255
-1.9164400 -3.7610800 -12.3687000 255 0 255
-1.8743700 -3.8388200 -12.0631000 255 0 255
-1.8563500 -3.8394600 -11.9365000 255 0 255
-1.8356000 -3.8136100 -11.8188000 255 0 255
-1.8125100 -3.8129100 -11.6755000 255 0 255
-1.7825700 -3.7232800 -11.5046000 255 0 255
-1.7927100 -3.7789300 -11.5439000 255 0 255
-1.7435500 -2.3460400 -11.7014000 255 0 255
-1.7426500 -2.3645400 -11.6819000 255 0 255
-1.7410200 -2.3801600 -11.6585000 255 0 255
-1.7363900 -2.5474500 -11.5846000 255 0 255
-1.7357500 -2.5700200 -11.5830000 255 0 255
-1.7374700 -2.8249100 -11.4966000 255 0 255
-2.0262800 -3.7721900 -13.0978000 255 0 255
-1.7361300 -2.8463900 -11.4916000 255 0 255
-1.9710700 -3.7568500 -12.7354000 255 0 255
-1.9481700 -3.7266100 -12.6065000 255 0 255
-1.9190100 -3.7495600 -12.4147000 255 0 255
-1.7579900 -3.2145700 -11.5115000 255 0 255
-1.7550200 -3.2336900 -11.4984000 255 0 255
-1.8886700 -3.7811800 -12.1872000 255 0 255
-1.8563800 -3.8472500 -11.9571000 255 0 255
-1.8516800 -3.8421800 -11.9450000 255 0 255
-1.8516500 -3.8471000 -11.9436000 255 0 255
-1.8357100 -3.8204000 -11.8402000 255 0 255
-1.7774400 -3.6566300 -11.5094000 255 0 255
-1.8138700 -3.8077300 -11.7097000 255 0 255
-1.7801700 -3.6906800 -11.5078000 255 0 255
-1.7928000 -3.7850700 -11.5650000 255 0 255
-1.7518800 -2.3115600 -11.7898000 255 0 255
-1.7479200 -2.3186700 -11.7540000 255 0 255
-1.7427600 -2.3211200 -11.7121000 255 0 255
-1.7346600 -2.5921100 -11.5792000 255 0 255
-1.7338800 -2.6145200 -11.5770000 255 0 255
-1.7325600 -2.8652400 -11.4755000 255 0 255
-1.7293200 -2.8843900 -11.4609000 255 0 255
-1.9731700 -3.7510100 -12.7768000 255 0 255
-1.9505000 -3.7181600 -12.6503000 255 0 255
-1.9187500 -3.7606000 -12.4332000 255 0 255
-1.7530200 -3.2540400 -11.4900000 255 0 255
-1.7510100 -3.2743500 -11.4817000 255 0 255
-1.8904900 -3.7747000 -12.2259000 255 0 255
-1.8823200 -3.7962900 -12.1647000 255 0 255
-1.8574900 -3.8458000 -11.9885000 255 0 255
-1.7625400 -3.5252200 -11.4799000 255 0 255
-1.8522700 -3.8477300 -11.9699000 255 0 255
-1.7652400 -3.5589200 -11.4784000 255 0 255
-1.8354000 -3.8308800 -11.8574000 255 0 255
-1.7662700 -3.5852300 -11.4683000 255 0 255
-1.8139900 -3.8139800 -11.7312000 255 0 255
-1.7931300 -3.7889500 -11.5886000 255 0 255
-1.7754100 -3.7438200 -11.4979000 255 0 255
-1.7327300 -2.6365200 -11.5729000 255 0 255
-1.7318000 -2.6587300 -11.5699000 255 0 255
-2.0351400 -3.8005700 -13.2115000 255 0 255
-1.7262600 -2.9036900 -11.4473000 255 0 255
-1.7287000 -2.9295600 -11.4610000 255 0 255
-1.7302800 -2.9544500 -11.4704000 255 0 255
-1.9518500 -3.7172700 -12.6847000 255 0 255
-1.7493300 -3.2950700 -11.4749000 255 0 255
-1.7470200 -3.3148800 -11.4650000 255 0 255
-1.7615200 -3.4989400 -11.4900000 255 0 255
-1.7546900 -3.4922200 -11.4552000 255 0 255
-1.8368600 -3.8256900 -11.8926000 255 0 255
-1.8136200 -3.8248300 -11.7477000 255 0 255
-1.7935500 -3.7919300 -11.6133000 255 0 255
-1.7274400 -2.3978200 -11.6442000 255 0 255
-1.7307500 -2.6807900 -11.5663000 255 0 255
-1.7295500 -2.7026700 -11.5619000 255 0 255
-1.7299500 -2.9770200 -11.4703000 255 0 255
-1.7293300 -2.9992400 -11.4688000 255 0 255
-1.9279500 -3.6966200 -12.5448000 255 0 255
-1.8914500 -3.7838900 -12.2771000 255 0 255
-1.7457000 -3.3360300 -11.4600000 255 0 255
-1.7439900 -3.3565900 -11.4531000 255 0 255
-1.8566400 -3.8276900 -12.0458000 255 0 255
-1.7535200 -3.5112600 -11.4633000 255 0 255
-1.8369700 -3.8325300 -11.9142000 255 0 255
-1.8131400 -3.8368300 -11.7629000 255 0 255
-1.7935100 -3.7994900 -11.6331000 255 0 255
-1.7247500 -2.4186400 -11.6324000 255 0 255
-1.7233400 -2.4406100 -11.6269000 255 0 255
-1.7287800 -2.7250100 -11.5597000 255 0 255
-1.7285600 -2.7479400 -11.5602000 255 0 255
-2.0308100 -3.8321800 -13.2045000 255 0 255
-1.9510600 -3.7421400 -12.7199000 255 0 255
-1.7267200 -3.0189500 -11.4574000 255 0 255
-1.7359600 -3.0536200 -11.5049000 255 0 255
-1.7377200 -3.0789600 -11.5152000 255 0 255
-1.7426500 -3.1084200 -11.5413000 255 0 255
-1.9261200 -3.7202000 -12.5481000 255 0 255
-1.7437900 -3.1330800 -11.5485000 255 0 255
-1.8925900 -3.7831900 -12.3094000 255 0 255
-1.7420000 -3.3767500 -11.4448000 255 0 255
-1.7400300 -3.3968600 -11.4365000 255 0 255
-1.8572100 -3.8288000 -12.0722000 255 0 255
-1.8366600 -3.8430700 -11.9315000 255 0 255
-1.8143800 -3.8328400 -11.7962000 255 0 255
-1.7933800 -3.8078500 -11.6521000 255 0 255
-1.7739600 -3.7787800 -11.5433000 255 0 255
-1.7209100 -2.3941300 -11.6332000 255 0 255
-1.7230100 -2.4636100 -11.6270000 255 0 255
-1.7179900 -2.4820100 -11.6033000 255 0 255
-1.7241200 -2.7661200 -11.5396000 255 0 255
-1.7193000 -2.7837800 -11.5170000 255 0 255
-1.9529100 -3.7375100 -12.7596000 255 0 255
-1.9272000 -3.7208200 -12.5801000 255 0 255
-1.7449400 -3.1577800 -11.5558000 255 0 255
-1.7425500 -3.1778200 -11.5454000 255 0 255
-1.8955600 -3.7674800 -12.3602000 255 0 255
-1.8687800 -3.7820400 -12.1854000 255 0 255
-1.8568800 -3.8360400 -12.0920000 255 0 255
-1.7399200 -3.4196600 -11.4375000 255 0 255
-1.7416900 -3.4452000 -11.4477000 255 0 255
-1.7442100 -3.4719100 -11.4616000 255 0 255
-1.7935800 -3.8130900 -11.6745000 255 0 255
-1.7741300 -3.7839500 -11.5654000 255 0 255
-1.7165900 -2.5038800 -11.5978000 255 0 255
-1.7154400 -2.5259800 -11.5937000 255 0 255
-1.7173000 -2.8045700 -11.5086000 255 0 255
-1.7153100 -2.8253200 -11.5002000 255 0 255
-1.9498300 -3.7704100 -12.7509000 255 0 255
-1.9281500 -3.7224600 -12.6110000 255 0 255
-1.7390200 -3.1962900 -11.5295000 255 0 255
-1.8979800 -3.7563500 -12.4057000 255 0 255
-1.7351400 -3.2141900 -11.5117000 255 0 255
-1.8704100 -3.7765300 -12.2229000 255 0 255
-1.8588000 -3.8279400 -12.1286000 255 0 255
-1.8314400 -3.8595800 -11.9287000 255 0 255
-1.8158500 -3.8267700 -11.8321000 255 0 255
-1.8142700 -3.8489400 -11.8359000 255 0 255
-1.7940900 -3.8154200 -11.7003000 255 0 255
-1.7742900 -3.7891300 -11.5876000 255 0 255
-1.7148700 -2.5486300 -11.5925000 255 0 255
-1.7131800 -2.5701400 -11.5856000 255 0 255
-1.7133200 -2.8460300 -11.4918000 255 0 255
-1.9544400 -3.7450100 -12.8178000 255 0 255
-1.9297500 -3.7190500 -12.6484000 255 0 255
-1.8966300 -3.7761900 -12.4132000 255 0 255
-1.7320800 -3.2331200 -11.4979000 255 0 255
-1.8709200 -3.7806300 -12.2491000 255 0 255
-1.8360900 -3.8364000 -12.0074000 255 0 255
-1.8329900 -3.8534300 -11.9622000 255 0 255
-1.7941900 -3.8216800 -11.7219000 255 0 255
-1.7744600 -3.7943300 -11.6099000 255 0 255
-1.7157200 -2.3441800 -11.6972000 255 0 255
-1.7138000 -2.3586000 -11.6721000 255 0 255
-1.7115700 -2.3717300 -11.6454000 255 0 255
-1.7121000 -2.5922400 -11.5818000 255 0 255
-1.7110200 -2.6143300 -11.5780000 255 0 255
-1.7085600 -2.8634100 -11.4695000 255 0 255
-1.7035100 -2.8803400 -11.4457000 255 0 255
-1.9310400 -3.7181600 -12.6828000 255 0 255
-1.9073900 -3.6970900 -12.5434000 255 0 255
-1.7298200 -3.2531000 -11.4882000 255 0 255
-1.7275700 -3.2730400 -11.4786000 255 0 255
-1.8714200 -3.7847600 -12.2753000 255 0 255
-1.8381400 -3.8268400 -12.0450000 255 0 255
-1.7354900 -3.4930700 -11.4535000 255 0 255
-1.8174500 -3.8272000 -11.8901000 255 0 255
-1.7558600 -3.6861100 -11.5413000 255 0 255
-1.7945300 -3.8256700 -11.7460000 255 0 255
-1.7571400 -3.7137600 -11.5324000 255 0 255
-1.7746300 -3.7995400 -11.6323000 255 0 255
-1.7579300 -3.7392400 -11.5210000 255 0 255
-1.7560300 -3.7569600 -11.5106000 255 0 255
-1.7205400 -2.3189400 -11.7528000 255 0 255
-1.7190900 -2.3353000 -11.7301000 255 0 255
-1.7089600 -2.3551100 -11.6651000 255 0 255
-1.7099400 -2.6363900 -11.5743000 255 0 255
-1.7088700 -2.6584400 -11.5705000 255 0 255
-1.7031400 -2.9028200 -11.4454000 255 0 255
-1.7055400 -2.9286700 -11.4591000 255 0 255
-1.7054200 -2.9514800 -11.4600000 255 0 255
-1.9323300 -3.7172700 -12.7175000 255 0 255
-1.9069000 -3.7100300 -12.5600000 255 0 255
-1.8722200 -3.7864800 -12.3046000 255 0 255
-1.7262600 -3.2942500 -11.4735000 255 0 255
