-3.6352700 -3.5894700 -11.3626000 0 255 0
-3.5405100 -2.0568700 -11.5212000 0 255 0
-3.4939800 -2.1699800 -11.3413000 0 255 0
-3.4744800 -2.4180600 -11.2071000 0 255 0
-4.2444200 -3.7017100 -13.2845000 0 255 0
-3.4509900 -2.5284300 -11.0978000 0 255 0
-4.1946000 -3.7396700 -13.1150000 0 255 0
-4.1585000 -3.7143200 -13.0088000 0 255 0
-4.1241900 -3.6867400 -12.9072000 0 255 0
-3.4399900 -2.6647400 -11.0218000 0 255 0
-3.4512600 -2.6930600 -11.0510000 0 255 0
-3.8917500 -3.4148500 -12.2467000 0 255 0
-3.9904300 -3.6469700 -12.4941000 0 255 0
-3.9376900 -3.5839400 -12.3479000 0 255 0
-3.9095600 -3.5507500 -12.2623000 0 255 0
-3.4464600 -2.8528100 -10.9919000 0 255 0
-3.4490300 -2.9935000 -10.9506000 0 255 0
-3.4513300 -3.0167600 -10.9572000 0 255 0
-3.7143100 -3.6174400 -11.6242000 0 255 0
-3.4673500 -3.2089800 -10.9511000 0 255 0
-3.6979900 -3.6338200 -11.5603000 0 255 0
-3.6686300 -3.6121400 -11.4736000 0 255 0
-3.6382600 -3.5938500 -11.3846000 0 255 0
-3.5706700 -2.0068600 -11.6369000 0 255 0
-3.5183900 -2.0906500 -11.4488000 0 255 0
-3.4669900 -2.4366800 -11.1892000 0 255 0
-3.4506600 -2.5503300 -11.0980000 0 255 0
-4.1995500 -3.7440500 -13.1443000 0 255 0
-3.4501700 -2.5721500 -11.0978000 0 255 0
-4.1605400 -3.7238800 -13.0307000 0 255 0
-4.0838700 -3.6719100 -12.7907000 0 255 0
-4.0494100 -3.6611100 -12.6860000 0 255 0
-3.8805400 -3.3958200 -12.2226000 0 255 0
-3.4491200 -2.7137900 -11.0466000 0 255 0
-3.8947900 -3.4464000 -12.2579000 0 255 0
-3.9759800 -3.6098700 -12.4748000 0 255 0
-3.9972600 -3.6459800 -12.5273000 0 255 0
-3.9132300 -3.5555400 -12.2875000 0 255 0
-3.4430600 -2.8725300 -10.9844000 0 255 0
-3.7636200 -3.5643900 -11.8022000 0 255 0
-3.4489300 -3.0369100 -10.9522000 0 255 0
-3.4677100 -3.2309900 -10.9529000 0 255 0
-3.6993700 -3.6422900 -11.5788000 0 255 0
-3.6703300 -3.6197300 -11.4927000 0 255 0
-3.6411500 -3.5984900 -11.4065000 0 255 0
-3.6167900 -3.5668900 -11.3317000 0 255 0
-3.4942000 -3.3744200 -10.9987000 0 255 0
-3.6043400 -3.5851000 -11.2874000 0 255 0
-3.5811000 -1.9810000 -11.6887000 0 255 0
-3.5489300 -1.9819500 -11.5914000 0 255 0
-3.5150400 -2.0384700 -11.4665000 0 255 0
-3.4835700 -2.2898600 -11.2885000 0 255 0
-3.4746600 -2.3165100 -11.2594000 0 255 0
-3.4611400 -2.4560300 -11.1755000 0 255 0
-4.2031300 -3.7510000 -13.1703000 0 255 0
-3.4537900 -2.5962000 -11.1080000 0 255 0
-4.1376300 -3.6877300 -12.9742000 0 255 0
-4.1177700 -3.7122600 -12.9078000 0 255 0
-4.0841800 -3.6844500 -12.8081000 0 255 0
-3.8803900 -3.4087300 -12.2385000 0 255 0
-4.0148000 -3.6364600 -12.6034000 0 255 0
-3.8974100 -3.4533500 -12.2806000 0 255 0
-3.4447100 -2.7331900 -11.0366000 0 255 0
-3.9420200 -3.5875800 -12.3747000 0 255 0
-3.4401200 -2.8925100 -10.9781000 0 255 0
-3.4482000 -3.0581700 -10.9514000 0 255 0
-3.7302900 -3.6077300 -11.6986000 0 255 0
-3.7183300 -3.6228700 -11.6545000 0 255 0
-3.7064800 -3.6378600 -11.6109000 0 255 0
-3.4672300 -3.2524000 -10.9527000 0 255 0
-3.4691300 -3.2755300 -10.9583000 0 255 0
-3.5230400 -2.0957100 -11.4874000 0 255 0
-3.4938500 -2.1577900 -11.3713000 0 255 0
-3.4703800 -2.3369700 -11.2496000 0 255 0
-3.4530200 -2.4741500 -11.1561000 0 255 0
-4.1646100 -3.7296600 -13.0577000 0 255 0
-3.4451900 -2.6135800 -11.0874000 0 255 0
-4.0897500 -3.6868200 -12.8386000 0 255 0
-4.0516400 -3.6737200 -12.7114000 0 255 0
-3.8435200 -3.3957800 -12.1311000 0 255 0
-3.4427300 -2.7539700 -11.0327000 0 255 0
-3.9450400 -3.5939700 -12.3984000 0 255 0
-3.9134200 -3.5677100 -12.3041000 0 255 0
-3.4376500 -2.9127500 -10.9729000 0 255 0
-3.4474800 -3.0794300 -10.9505000 0 255 0
-3.4486900 -3.1020000 -10.9545000 0 255 0
-3.6734800 -3.6240300 -11.5153000 0 255 0
-3.6440000 -3.6032800 -11.4282000 0 255 0
-3.4702500 -3.2981200 -10.9620000 0 255 0
-3.4733100 -3.3221600 -10.9704000 0 255 0
-3.6128400 -3.5875400 -11.3373000 0 255 0
-3.4909700 -3.3937700 -11.0060000 0 255 0
-3.5861300 -1.9958500 -11.7304000 0 255 0
-3.5304600 -1.9551300 -11.5642000 0 255 0
-3.5129300 -2.0153000 -11.4822000 0 255 0
-3.4661100 -2.3573700 -11.2399000 0 255 0
-3.4472200 -2.4933800 -11.1425000 0 255 0
-4.1687100 -3.7354500 -13.0849000 0 255 0
-4.1372700 -3.7017600 -12.9901000 0 255 0
-4.0957200 -3.6884800 -12.8702000 0 255 0
-4.0598500 -3.6754900 -12.7581000 0 255 0
-4.0205000 -3.6379700 -12.6340000 0 255 0
-3.8967000 -3.4675000 -12.2952000 0 255 0
-3.8483800 -3.3974400 -12.1593000 0 255 0
-3.8796700 -3.4509500 -12.2372000 0 255 0
-3.9729300 -3.6288600 -12.4835000 0 255 0
-3.9488100 -3.5988700 -12.4240000 0 255 0
-3.4396100 -2.7740400 -11.0259000 0 255 0
-3.9148800 -3.5772200 -12.3239000 0 255 0
-3.4357000 -2.7936100 -11.0171000 0 255 0
-3.8870100 -3.5438300 -12.2389000 0 255 0
-3.4379300 -2.9347200 -10.9746000 0 255 0
-3.4385800 -2.9569300 -10.9772000 0 255 0
-3.4495700 -3.1243600 -10.9576000 0 255 0
-3.6769300 -3.6276700 -11.5387000 0 255 0
-3.6453100 -3.6116800 -11.4464000 0 255 0
-3.6170300 -3.5889700 -11.3622000 0 255 0
-3.4764500 -3.3463000 -10.9791000 0 255 0
-3.5109100 -2.0927000 -11.4718000 0 255 0
-3.4941700 -2.1472300 -11.4022000 0 255 0
-3.4586000 -2.3761700 -11.2219000 0 255 0
-3.4460200 -2.5149400 -11.1405000 0 255 0
-4.1732000 -3.7405400 -13.1131000 0 255 0
-4.1370100 -3.7156100 -13.0063000 0 255 0
-4.1035700 -3.6865900 -12.9065000 0 255 0
-3.4308800 -2.6276900 -11.0524000 0 255 0
-4.0211800 -3.6495900 -12.6522000 0 255 0
-4.0186800 -3.6597700 -12.6384000 0 255 0
-3.8547700 -3.3957700 -12.1914000 0 255 0
-3.8751600 -3.4327900 -12.2419000 0 255 0
-3.9540500 -3.6007700 -12.4532000 0 255 0
-3.9735700 -3.6403400 -12.5014000 0 255 0
-3.8911100 -3.5476000 -12.2651000 0 255 0
-3.4312800 -2.8128200 -11.0071000 0 255 0
-3.4345300 -2.9760900 -10.9681000 0 255 0
-3.7185000 -3.5905300 -11.6985000 0 255 0
-3.4495600 -3.1461100 -10.9585000 0 255 0
-3.4495500 -3.1678600 -10.9594000 0 255 0
-3.6803900 -3.6313400 -11.5621000 0 255 0
-3.6506900 -3.6106600 -11.4743000 0 255 0
-3.4771800 -3.3686700 -10.9818000 0 255 0
-3.4781500 -3.3912300 -10.9851000 0 255 0
-3.5884800 -1.9830600 -11.7566000 0 255 0
-3.5238400 -2.0295000 -11.5431000 0 255 0
-3.5295600 -2.0630700 -11.5458000 0 255 0
-3.5294100 -2.1069800 -11.5292000 0 255 0
-3.4726100 -2.2579600 -11.3088000 0 255 0
-3.4527400 -2.3956800 -11.2081000 0 255 0
-3.4368200 -2.5322600 -11.1184000 0 255 0
-4.0675100 -3.6783600 -12.8030000 0 255 0
-3.4250700 -2.6464000 -11.0389000 0 255 0
-3.4273900 -2.6696600 -11.0457000 0 255 0
-4.0269100 -3.6511400 -12.6830000 0 255 0
-3.8594200 -3.3980000 -12.2192000 0 255 0
-3.9802400 -3.6395800 -12.5343000 0 255 0
-3.9169800 -3.5854100 -12.3453000 0 255 0
-3.4278900 -2.8326100 -10.9996000 0 255 0
-3.4304900 -2.9952200 -10.9590000 0 255 0
-3.4483200 -3.1887600 -10.9573000 0 255 0
-3.6842800 -3.6340800 -11.5866000 0 255 0
-3.6545900 -3.6131100 -11.4988000 0 255 0
-3.6261300 -3.5903000 -11.4140000 0 255 0
-3.6174600 -3.5993200 -11.3782000 0 255 0
-3.5317200 -1.9477300 -11.5967000 0 255 0
-3.5285300 -1.9786600 -11.5815000 0 255 0
-3.5275100 -2.0131800 -11.5648000 0 255 0
-3.5133500 -2.0858900 -11.5001000 0 255 0
-3.4822200 -2.1355200 -11.3852000 0 255 0
-3.4698200 -2.2153300 -11.3250000 0 255 0
-3.4619800 -2.2757100 -11.2827000 0 255 0
-3.4612000 -2.3037800 -11.2667000 0 255 0
-3.4569300 -2.3093200 -11.2529000 0 255 0
-3.4515200 -2.4174200 -11.2061000 0 255 0
-3.4333500 -2.5525400 -11.1106000 0 255 0
-4.1764600 -3.7479700 -13.1382000 0 255 0
-4.1162800 -3.6887700 -12.9720000 0 255 0
-4.1386800 -3.7258400 -13.0273000 0 255 0
-4.0680000 -3.6759200 -12.8182000 0 255 0
-4.0314100 -3.6552200 -12.7107000 0 255 0
-3.4291500 -2.6926200 -11.0512000 0 255 0
-3.9994800 -3.6263900 -12.6151000 0 255 0
-4.0241900 -3.6661900 -12.6755000 0 255 0
-3.8739500 -3.4480200 -12.2552000 0 255 0
-3.8878600 -3.4991600 -12.2896000 0 255 0
-3.9547100 -3.6121700 -12.4712000 0 255 0
-3.9251700 -3.5809100 -12.3818000 0 255 0
-3.8918500 -3.5585600 -12.2831000 0 255 0
-3.4252200 -2.8528100 -10.9939000 0 255 0
-3.4316100 -3.0177300 -10.9628000 0 255 0
-3.4461700 -3.2089900 -10.9529000 0 255 0
-3.5303900 -1.9498900 -11.6076000 0 255 0
-3.4908900 -2.1234500 -11.4267000 0 255 0
-3.4648700 -2.2429800 -11.3123000 0 255 0
-3.4456800 -2.4368300 -11.1924000 0 255 0
-4.1907500 -3.7486100 -13.2083000 0 255 0
-4.1824800 -3.7503300 -13.1703000 0 255 0
-3.4312300 -2.5735000 -11.1063000 0 255 0
-4.1421400 -3.7327000 -13.0528000 0 255 0
-4.0975600 -3.7113900 -12.9081000 0 255 0
-3.8605600 -3.4080600 -12.2384000 0 255 0
-3.4280200 -2.7139400 -11.0494000 0 255 0
-3.8771100 -3.4537100 -12.2794000 0 255 0
-3.9260100 -3.5918200 -12.4001000 0 255 0
-3.4216700 -2.8724400 -10.9860000 0 255 0
-3.4294400 -3.0380500 -10.9583000 0 255 0
-3.6873600 -3.6386900 -11.6092000 0 255 0
-3.4456900 -3.2304000 -10.9527000 0 255 0
-3.4466400 -3.2528400 -10.9560000 0 255 0
-3.6247900 -3.6048600 -11.4258000 0 255 0
-3.5329900 -1.9403200 -11.6292000 0 255 0
-3.5355600 -1.9982600 -11.6160000 0 255 0
-3.5239700 -1.9999500 -11.5787000 0 255 0
-3.4653600 -2.2212500 -11.3257000 0 255 0
-3.4525700 -2.2938900 -11.2598000 0 255 0
-3.4387200 -2.4556100 -11.1757000 0 255 0
-3.4292200 -2.5945000 -11.1023000 0 255 0
-4.1122700 -3.7097700 -12.9787000 0 255 0
-4.0710500 -3.6831300 -12.8425000 0 255 0
-4.0283500 -3.6751700 -12.7078000 0 255 0
-3.9993600 -3.6395600 -12.6312000 0 255 0
-3.4262500 -2.7348700 -11.0459000 0 255 0
-3.4231500 -2.7549900 -11.0391000 0 255 0
-3.8914700 -3.5719100 -12.2984000 0 255 0
-3.4183000 -2.8921300 -10.9786000 0 255 0
-3.4270900 -3.0582100 -10.9534000 0 255 0
-3.4257300 -3.0790400 -10.9510000 0 255 0
-3.6904500 -3.6433200 -11.6319000 0 255 0
-3.6587700 -3.6265200 -11.5391000 0 255 0
-3.4468200 -3.2747400 -10.9573000 0 255 0
-3.4748600 -3.3882300 -11.0101000 0 255 0
-3.6002800 -1.9813100 -11.8419000 0 255 0
-3.5947900 -1.9950900 -11.8150000 0 255 0
-3.5100900 -2.0218900 -11.5403000 0 255 0
-3.5087900 -2.0579300 -11.5191000 0 255 0
-3.4961500 -2.0622700 -11.4858000 0 255 0
-3.4638300 -2.1814200 -11.3447000 0 255 0
-3.4589000 -2.1937300 -11.3288000 0 255 0
-3.4478500 -2.3141500 -11.2489000 0 255 0
-3.4436000 -2.3345800 -11.2391000 0 255 0
-3.4324700 -2.4746700 -11.1609000 0 255 0
-4.1858000 -3.7438100 -13.2151000 0 255 0
-4.1456100 -3.7395900 -13.0785000 0 255 0
-3.4233900 -2.6133700 -11.0886000 0 255 0
-4.0767200 -3.6852900 -12.8735000 0 255 0
-4.0345000 -3.6805700 -12.7474000 0 255 0
-3.8581800 -3.4259100 -12.2488000 0 255 0
-3.8291100 -3.3957300 -12.1603000 0 255 0
-3.9566600 -3.6337100 -12.5087000 0 255 0
-3.9270600 -3.6023100 -12.4190000 0 255 0
-3.4211100 -2.7757200 -11.0350000 0 255 0
-3.8731200 -3.5434000 -12.2692000 0 255 0
-3.8934300 -3.5803400 -12.3194000 0 255 0
-3.4160400 -2.9124900 -10.9739000 0 255 0
-3.4176900 -2.9353400 -10.9790000 0 255 0
-3.4262400 -3.1011300 -10.9532000 0 255 0
-3.6281800 -3.6083500 -11.4490000 0 255 0
-3.4485500 -3.2977700 -10.9625000 0 255 0
-3.4521900 -3.3222600 -10.9725000 0 255 0
-3.5165900 -2.0506100 -11.5610000 0 255 0
-3.4904200 -2.1099800 -11.4561000 0 255 0
-3.4565500 -2.2153300 -11.3239000 0 255 0
-3.4283000 -2.4947300 -11.1514000 0 255 0
-4.1472900 -3.7498800 -13.0996000 0 255 0
-4.1119800 -3.7236700 -12.9947000 0 255 0
-4.0832100 -3.6859300 -12.9066000 0 255 0
-3.9966200 -3.6580000 -12.6408000 0 255 0
-3.8342800 -3.3966500 -12.1895000 0 255 0
-3.9604700 -3.6387000 -12.5345000 0 255 0
-3.9118600 -3.5666600 -12.3978000 0 255 0
-3.9287800 -3.6114200 -12.4396000 0 255 0
-3.8963800 -3.5866900 -12.3429000 0 255 0
-3.4143500 -2.7935700 -11.0190000 0 255 0
-3.4202300 -2.9587900 -10.9863000 0 255 0
-3.7378000 -3.5517700 -11.8369000 0 255 0
-3.4269700 -3.1233800 -10.9560000 0 255 0
-3.4268600 -3.1450600 -10.9566000 0 255 0
-3.6616200 -3.6315100 -11.5611000 0 255 0
-3.6317300 -3.6114900 -11.4726000 0 255 0
-3.4562300 -3.3470900 -10.9834000 0 255 0
-3.5410900 -1.9573000 -11.6744000 0 255 0
-3.4896100 -1.9390300 -11.5178000 0 255 0
-3.4996500 -2.0151300 -11.5287000 0 255 0
-3.4524500 -2.2361200 -11.3145000 0 255 0
-3.4372900 -2.3539700 -11.2241000 0 255 0
-3.4236800 -2.5145100 -11.1407000 0 255 0
-4.1525900 -3.7534200 -13.1300000 0 255 0
-4.1153900 -3.7305100 -13.0202000 0 255 0
-4.0865700 -3.6926900 -12.9318000 0 255 0
-3.4094200 -2.6276300 -11.0543000 0 255 0
-3.4093700 -2.6495800 -11.0552000 0 255 0
-4.0387100 -3.6896400 -12.7801000 0 255 0
-3.8394800 -3.3975800 -12.2188000 0 255 0
-3.8578100 -3.4393000 -12.2642000 0 255 0
-3.9677400 -3.6366900 -12.5692000 0 255 0
-3.8586300 -3.5064900 -12.2496000 0 255 0
-3.4092900 -2.8123800 -11.0073000 0 255 0
-3.4166400 -2.9782700 -10.9783000 0 255 0
-3.7232500 -3.5724700 -11.7908000 0 255 0
-3.7096000 -3.5913800 -11.7468000 0 255 0
-3.7000400 -3.6016100 -11.7114000 0 255 0
-3.6894400 -3.6141600 -11.6740000 0 255 0
-3.4267300 -3.1667300 -10.9573000 0 255 0
-3.6647800 -3.6358400 -11.5839000 0 255 0
-3.6358200 -3.6134500 -11.4976000 0 255 0
-3.5480700 -1.9738400 -11.7069000 0 255 0
-3.5034900 -2.0443900 -11.5438000 0 255 0
-3.4933300 -2.1088800 -11.4918000 0 255 0
-3.4628200 -2.1660300 -11.3732000 0 255 0
-3.4468400 -2.2514400 -11.2992000 0 255 0
-3.4486900 -2.2570200 -11.3060000 0 255 0
-3.4324900 -2.3740200 -11.2130000 0 255 0
-3.4179400 -2.5336400 -11.1272000 0 255 0
-4.1601900 -3.7527300 -13.1663000 0 255 0
-4.0948900 -3.6899100 -12.9697000 0 255 0
-3.4093300 -2.6715300 -11.0561000 0 255 0
-4.0067400 -3.6636500 -12.6993000 0 255 0
-3.8412000 -3.4063300 -12.2395000 0 255 0
-3.9733200 -3.6381900 -12.5996000 0 255 0
-3.9318100 -3.6178700 -12.4634000 0 255 0
-3.9083900 -3.5866600 -12.4054000 0 255 0
-3.8689900 -3.5647900 -12.2750000 0 255 0
-3.4079800 -2.8334500 -11.0050000 0 255 0
-3.4139400 -2.9982900 -10.9725000 0 255 0
-3.4257600 -3.1878100 -10.9558000 0 255 0
-3.6682300 -3.6395300 -11.6075000 0 255 0
-3.6386300 -3.6184100 -11.5195000 0 255 0
-3.5458100 -1.9621200 -11.7135000 0 255 0
-3.5369400 -1.9655900 -11.6836000 0 255 0
-3.4975400 -1.9559300 -11.5625000 0 255 0
-3.4980500 -1.9967900 -11.5537000 0 255 0
-3.4872400 -2.0344900 -11.5040000 0 255 0
-3.4882600 -2.0593300 -11.4945000 0 255 0
-3.4569100 -2.1341300 -11.3793000 0 255 0
-3.4392900 -2.2752900 -11.2829000 0 255 0
-3.4248300 -2.3926100 -11.1945000 0 255 0
-3.4245000 -2.4147500 -11.1947000 0 255 0
-3.4144900 -2.5539300 -11.1195000 0 255 0
-4.1670200 -3.7535700 -13.2007000 0 255 0
-4.1188200 -3.7373800 -13.0457000 0 255 0
-4.0469100 -3.6900700 -12.8327000 0 255 0
-4.0367100 -3.6969800 -12.7903000 0 255 0
-3.4092800 -2.6934800 -11.0571000 0 255 0
-3.9789300 -3.6397000 -12.6302000 0 255 0
-3.8505000 -3.4679600 -12.2622000 0 255 0
-3.9348400 -3.6243300 -12.4874000 0 255 0
-3.8568500 -3.5228800 -12.2613000 0 255 0
-3.8688900 -3.5775400 -12.2909000 0 255 0
-3.4055400 -2.8537900 -10.9999000 0 255 0
-3.4116400 -3.0185400 -10.9677000 0 255 0
-3.6717100 -3.6432300 -11.6312000 0 255 0
-3.4241000 -3.2083700 -10.9526000 0 255 0
-3.4257500 -3.2313100 -10.9576000 0 255 0
-3.6071300 -3.6028100 -11.4271000 0 255 0
-3.5115600 -2.1638600 -11.5552000 0 255 0
-3.4588900 -2.1397600 -11.3965000 0 255 0
-3.4474000 -2.1528600 -11.3559000 0 255 0
-3.4220800 -2.4358400 -11.1896000 0 255 0
-3.4103600 -2.5738200 -11.1100000 0 255 0
-4.1222600 -3.7442600 -13.0713000 0 255 0
-4.0901400 -3.7123800 -12.9744000 0 255 0
-4.0525200 -3.6922400 -12.8636000 0 255 0
-4.0074100 -3.6753200 -12.7175000 0 255 0
-3.4078900 -2.7146600 -11.0546000 0 255 0
-3.8382400 -3.4254900 -12.2484000 0 255 0
-3.8109800 -3.3914200 -12.1643000 0 255 0
-3.4061400 -2.7356000 -11.0512000 0 255 0
-3.9378900 -3.6308100 -12.5113000 0 255 0
-3.9058800 -3.6046100 -12.4154000 0 255 0
-3.4001800 -2.8722700 -10.9873000 0 255 0
-3.4078100 -3.0377500 -10.9591000 0 255 0
-3.4057700 -3.0581200 -10.9549000 0 255 0
-3.6396300 -3.6276100 -11.5371000 0 255 0
-3.4266900 -3.2537600 -10.9609000 0 255 0
-3.6077200 -3.6128200 -11.4436000 0 255 0
-3.4294800 -2.2932700 -11.2588000 0 255 0
-3.4163000 -2.4551900 -11.1759000 0 255 0
-3.4095300 -2.5954700 -11.1090000 0 255 0
-4.1257100 -3.7511700 -13.0970000 0 255 0
-4.0131400 -3.6769300 -12.7485000 0 255 0
-3.8188100 -3.3862500 -12.2003000 0 255 0
-3.4036600 -2.7561000 -11.0459000 0 255 0
-3.8504300 -3.5493200 -12.2614000 0 255 0
-3.8723000 -3.5828100 -12.3156000 0 255 0
-3.3984000 -2.8929700 -10.9839000 0 255 0
-3.7210500 -3.5482800 -11.8386000 0 255 0
-3.4040700 -3.0787100 -10.9516000 0 255 0
-3.6423600 -3.6328200 -11.5589000 0 255 0
-3.4267500 -3.2755800 -10.9620000 0 255 0
-3.6119600 -3.6142700 -11.4689000 0 255 0
-3.4268000 -3.2973900 -10.9630000 0 255 0
-3.5523600 -1.9915600 -11.7615000 0 255 0
-3.5004600 -1.9546200 -11.5981000 0 255 0
-3.4966000 -1.9789200 -11.5789000 0 255 0
-3.5004000 -2.0005700 -11.5874000 0 255 0
-3.4795500 -2.0801800 -11.4939000 0 255 0
-3.4414400 -2.1730000 -11.3416000 0 255 0
-3.4401900 -2.1951100 -11.3395000 0 255 0
-3.4238600 -2.3130900 -11.2455000 0 255 0
-3.4100900 -2.4742500 -11.1611000 0 255 0
-3.4090500 -2.6173100 -11.1088000 0 255 0
-4.0900900 -3.7258000 -12.9911000 0 255 0
-4.0653800 -3.6935600 -12.9298000 0 255 0
-4.0555600 -3.6994900 -12.8881000 0 255 0
-4.0163600 -3.6836000 -12.7733000 0 255 0
-3.9852300 -3.6528600 -12.6791000 0 255 0
-3.8380800 -3.4384100 -12.2644000 0 255 0
-3.9406800 -3.6378500 -12.5347000 0 255 0
-3.8452100 -3.4921000 -12.2652000 0 255 0
-3.9076700 -3.6135400 -12.4362000 0 255 0
-3.3997200 -2.7756800 -11.0369000 0 255 0
-3.8776600 -3.5839600 -12.3453000 0 255 0
-3.3962500 -2.9134000 -10.9794000 0 255 0
-3.3961000 -2.9351100 -10.9800000 0 255 0
-3.7222400 -3.5561900 -11.8568000 0 255 0
-3.7014200 -3.5801600 -11.7816000 0 255 0
-3.6946200 -3.5844900 -11.7518000 0 255 0
-3.4039700 -3.1003800 -10.9523000 0 255 0
-3.6456900 -3.6366800 -11.5822000 0 255 0
-3.6171100 -3.6136200 -11.4966000 0 255 0
-3.4320900 -3.3231200 -10.9771000 0 255 0
-3.4376800 -3.3491400 -10.9920000 0 255 0
-3.5740500 -1.9836400 -11.8438000 0 255 0
-3.5674200 -1.9952800 -11.8138000 0 255 0
-3.4920900 -2.0243900 -11.5650000 0 255 0
-3.4646000 -2.0727000 -11.4559000 0 255 0
-3.4522900 -2.1036400 -11.4149000 0 255 0
-3.4349600 -2.2154500 -11.3272000 0 255 0
-3.4178900 -2.3326800 -11.2313000 0 255 0
-3.4059400 -2.4943100 -11.1516000 0 255 0
-4.1311900 -3.7542900 -13.1280000 0 255 0
-4.0735300 -3.6909900 -12.9675000 0 255 0
-4.0948000 -3.7301100 -13.0199000 0 255 0
-3.4007400 -2.6347500 -11.0887000 0 255 0
-4.0255900 -3.6783700 -12.8134000 0 255 0
-3.9896400 -3.6569500 -12.7069000 0 255 0
-3.8138800 -3.4099000 -12.2042000 0 255 0
-3.9458400 -3.6400600 -12.5642000 0 255 0
-3.9112600 -3.6187300 -12.4616000 0 255 0
-3.8842200 -3.5826400 -12.3780000 0 255 0
-3.3943300 -2.7943500 -11.0243000 0 255 0
-3.3984300 -2.9584300 -10.9869000 0 255 0
-3.4039500 -3.1221200 -10.9532000 0 255 0
-3.4037400 -3.1437200 -10.9537000 0 255 0
-3.6687700 -3.6199200 -11.6668000 0 255 0
-3.6491200 -3.6403600 -11.6058000 0 255 0
-3.4953000 -1.9240900 -11.6188000 0 255 0
-3.4770000 -2.0587600 -11.5170000 0 255 0
-3.4506700 -2.0950300 -11.4205000 0 255 0
-3.4292800 -2.2355300 -11.3137000 0 255 0
-3.4122800 -2.3523700 -11.2180000 0 255 0
-3.4029700 -2.5149400 -11.1451000 0 255 0
-4.1476800 -3.7503500 -13.2043000 0 255 0
-4.1387300 -3.7536000 -13.1643000 0 255 0
-4.0983900 -3.7366100 -13.0460000 0 255 0
-3.3973300 -2.6548600 -11.0811000 0 255 0
-3.8206600 -3.4072200 -12.2376000 0 255 0
-3.9525900 -3.6390600 -12.5977000 0 255 0
-3.8850400 -3.5935500 -12.3964000 0 255 0
-3.8364800 -3.5237500 -12.2595000 0 255 0
-3.3911800 -2.8143200 -11.0173000 0 255 0
-3.8451900 -3.5731600 -12.2645000 0 255 0
-3.3982700 -2.9801500 -10.9874000 0 255 0
-3.4036100 -3.1653700 -10.9543000 0 255 0
-3.6175000 -3.6242100 -11.5126000 0 255 0
-3.5791700 -3.6139000 -11.3883000 0 255 0
-3.5782400 -1.9541700 -11.8814000 0 255 0
-3.4658700 -2.0400000 -11.5000000 0 255 0
-3.4387800 -2.1129700 -11.3908000 0 255 0
-3.4259500 -2.2566100 -11.3062000 0 255 0
-3.4078100 -2.3725500 -11.2076000 0 255 0
-3.4007300 -2.5359300 -11.1404000 0 255 0
-4.1318500 -3.7557400 -13.1637000 0 255 0
-4.0272000 -3.6883300 -12.8341000 0 255 0
-3.3912300 -2.6734000 -11.0666000 0 255 0
-3.9869100 -3.6754600 -12.7165000 0 255 0
-3.9578000 -3.6412900 -12.6274000 0 255 0
-3.8256300 -3.4545800 -12.2559000 0 255 0
-3.8318800 -3.4647300 -12.2651000 0 255 0
-3.9142700 -3.6251900 -12.4855000 0 255 0
-3.9040300 -3.6260100 -12.4566000 0 255 0
-3.8469000 -3.5819700 -12.2849000 0 255 0
-3.3882000 -2.8343700 -11.0108000 0 255 0
-3.3951400 -2.9999000 -10.9805000 0 255 0
-3.3905100 -3.0186000 -10.9698000 0 255 0
-3.6628800 -3.6428900 -11.6698000 0 255 0
-3.4034700 -3.1870200 -10.9549000 0 255 0
-3.6525600 -3.6440600 -11.6295000 0 255 0
-3.6194100 -3.6312500 -11.5325000 0 255 0
-3.5824300 -3.6174900 -11.4112000 0 255 0
-3.4495100 -2.0816700 -11.4402000 0 255 0
-3.4328100 -2.1332400 -11.3764000 0 255 0
-3.4166100 -2.2748800 -11.2831000 0 255 0
-3.4020400 -2.3920300 -11.1938000 0 255 0
-3.4008300 -2.4137300 -11.1918000 0 255 0
-3.3922100 -2.5535100 -11.1197000 0 255 0
-4.1009400 -3.7451300 -13.0694000 0 255 0
-4.0668300 -3.7173100 -12.9671000 0 255 0
-4.0299100 -3.6961400 -12.8577000 0 255 0
-3.3888400 -2.6940200 -11.0615000 0 255 0
-3.9600300 -3.6496600 -12.6496000 0 255 0
-3.3863800 -2.7145700 -11.0563000 0 255 0
-3.9165100 -3.6332800 -12.5075000 0 255 0
-3.8840400 -3.6083300 -12.4101000 0 255 0
-3.8509400 -3.5858100 -12.3113000 0 255 0
-3.3862300 -2.8550100 -11.0068000 0 255 0
-3.3862700 -3.0375100 -10.9601000 0 255 0
-3.4033100 -3.2086600 -10.9554000 0 255 0
-3.4049100 -3.2315800 -10.9603000 0 255 0
-3.5833700 -3.6266200 -11.4286000 0 255 0
-3.4972000 -1.9190900 -11.6527000 0 255 0
-3.4892300 -1.9287000 -11.6202000 0 255 0
-3.4667600 -1.9762800 -11.5344000 0 255 0
-3.4455600 -1.9714500 -11.4738000 0 255 0
-3.4630900 -2.0001600 -11.5166000 0 255 0
-3.4529100 -2.0203800 -11.4826000 0 255 0
-3.3887800 -2.5737600 -11.1120000 0 255 0
-4.1043600 -3.7520400 -13.0950000 0 255 0
-4.0683500 -3.7276800 -12.9878000 0 255 0
-4.0326300 -3.7039700 -12.8814000 0 255 0
-3.9926600 -3.6744000 -12.7582000 0 255 0
-3.8126300 -3.4377500 -12.2337000 0 255 0
-3.3833700 -2.7347700 -11.0496000 0 255 0
-3.9197100 -3.6394200 -12.5320000 0 255 0
-3.8257000 -3.4909300 -12.2657000 0 255 0
-3.9069800 -3.6365900 -12.4847000 0 255 0
-3.8301000 -3.5501900 -12.2596000 0 255 0
-3.3808900 -2.8735000 -10.9942000 0 255 0
-3.3834700 -3.0573600 -10.9540000 0 255 0
-3.6222700 -3.6360800 -11.5546000 0 255 0
-3.4072600 -3.2550700 -10.9672000 0 255 0
-3.4074400 -3.2769900 -10.9685000 0 255 0
-3.5927000 -3.6158800 -11.4664000 0 255 0
-3.4869300 -1.9511800 -11.6222000 0 255 0
-3.4412600 -1.9757800 -11.4640000 0 255 0
-3.4948800 -2.0672100 -11.6164000 0 255 0
-3.4257000 -2.1529500 -11.3591000 0 255 0
-3.4061600 -2.2925400 -11.2572000 0 255 0
-3.3952800 -2.4332200 -11.1786000 0 255 0
-4.1098000 -3.7551500 -13.1260000 0 255 0
-3.3838700 -2.5931600 -11.1004000 0 255 0
-4.0740600 -3.7299600 -13.0193000 0 255 0
-4.0054500 -3.6775000 -12.8137000 0 255 0
-3.9954200 -3.6844600 -12.7713000 0 255 0
-3.9643900 -3.6537300 -12.6772000 0 255 0
-3.8194100 -3.4351500 -12.2672000 0 255 0
-3.9244400 -3.6424300 -12.5604000 0 255 0
-3.3816900 -2.7557300 -11.0464000 0 255 0
-3.8859800 -3.6169000 -12.4313000 0 255 0
-3.8550000 -3.5896700 -12.3377000 0 255 0
-3.3777700 -2.8933500 -10.9873000 0 255 0
-3.3771900 -2.9147900 -10.9868000 0 255 0
-3.6772400 -3.5930500 -11.7673000 0 255 0
-3.3828800 -3.0787000 -10.9535000 0 255 0
-3.6486000 -3.6246600 -11.6605000 0 255 0
-3.6270100 -3.6365800 -11.5815000 0 255 0
-3.5978500 -3.6151200 -11.4942000 0 255 0
-3.4050300 -3.2969900 -10.9634000 0 255 0
-3.4984400 -1.9451600 -11.6676000 0 255 0
-3.4705300 -1.9725400 -11.5758000 0 255 0
-3.4186200 -2.1726000 -11.3418000 0 255 0
-3.3992100 -2.3117100 -11.2404000 0 255 0
-3.3877800 -2.4516400 -11.1604000 0 255 0
-4.1340700 -3.7310200 -13.2212000 0 255 0
-4.1288700 -3.7461000 -13.2093000 0 255 0
-4.1172800 -3.7544700 -13.1623000 0 255 0
-4.0798100 -3.7322500 -13.0510000 0 255 0
-3.3866600 -2.6168000 -11.1086000 0 255 0
-4.0345200 -3.7134400 -12.9030000 0 255 0
-3.9662900 -3.6628600 -12.6986000 0 255 0
-3.7915700 -3.4149200 -12.1977000 0 255 0
-3.8909800 -3.6190600 -12.4603000 0 255 0
-3.8218600 -3.5119500 -12.2723000 0 255 0
-3.3781000 -2.7755100 -11.0383000 0 255 0
-3.8602400 -3.5910300 -12.3672000 0 255 0
-3.8248900 -3.5740200 -12.2626000 0 255 0
-3.3768300 -2.9363800 -10.9869000 0 255 0
-3.3833800 -3.1008000 -10.9557000 0 255 0
-3.3833300 -3.1225200 -10.9565000 0 255 0
-3.6300000 -3.6412000 -11.6041000 0 255 0
-3.4124200 -3.3243200 -10.9829000 0 255 0
-3.4207600 -3.3524700 -11.0048000 0 255 0
-3.5588400 -3.6184100 -11.3829000 0 255 0
-3.5040300 -1.9765300 -11.6917000 0 255 0
-3.4395500 -2.0765700 -11.4507000 0 255 0
-3.4122600 -2.1924700 -11.3264000 0 255 0
-3.3922900 -2.3308100 -11.2236000 0 255 0
-3.3836500 -2.4717200 -11.1509000 0 255 0
-3.3819000 -2.6362100 -11.0975000 0 255 0
-4.0343300 -3.7270400 -12.9192000 0 255 0
-4.0048600 -3.6918000 -12.8288000 0 255 0
-3.8087300 -3.4012200 -12.2741000 0 255 0
-3.9296700 -3.6444500 -12.5902000 0 255 0
-3.8068600 -3.4536300 -12.2550000 0 255 0
-3.8118600 -3.4645700 -12.2644000 0 255 0
-3.8621500 -3.5995700 -12.3884000 0 255 0
-3.3745800 -2.7953000 -11.0303000 0 255 0
-3.3775100 -2.9586500 -10.9896000 0 255 0
-3.3826600 -3.1438000 -10.9558000 0 255 0
-3.6492300 -3.6334800 -11.6772000 0 255 0
-3.6330100 -3.6458300 -11.6267000 0 255 0
-3.5942600 -3.6350700 -11.5005000 0 255 0
-3.5289400 -1.9425200 -11.7897000 0 255 0
-3.5043200 -1.9507900 -11.7083000 0 255 0
-3.5061500 -1.9571100 -11.7097000 0 255 0
-3.4825900 -2.0104900 -11.6243000 0 255 0
-3.4580800 -2.0899900 -11.5166000 0 255 0
-3.4080000 -2.2132000 -11.3165000 0 255 0
-3.3865200 -2.3503900 -11.2098000 0 255 0
-3.3795400 -2.4917600 -11.1414000 0 255 0
-3.3763800 -2.5122600 -11.1343000 0 255 0
-4.0829300 -3.7396500 -13.0759000 0 255 0
-3.3751500 -2.6544300 -11.0812000 0 255 0
-4.0088500 -3.6970100 -12.8558000 0 255 0
-3.9667600 -3.6749000 -12.7163000 0 255 0
-3.9324900 -3.6515000 -12.6139000 0 255 0
-3.7886600 -3.4340000 -12.2066000 0 255 0
-3.8843900 -3.6209500 -12.4654000 0 255 0
-3.3715500 -2.8153600 -11.0236000 0 255 0
-3.8265900 -3.5828300 -12.2831000 0 255 0
-3.3764000 -2.9797400 -10.9878000 0 255 0
-3.3732300 -2.9994500 -10.9807000 0 255 0
-3.6526500 -3.6362500 -11.6997000 0 255 0
-3.3825800 -3.1654900 -10.9565000 0 255 0
-3.5987000 -3.6360800 -11.5266000 0 255 0
-3.5616700 -3.6229200 -11.4049000 0 255 0
-3.5401000 -1.9511200 -11.8368000 0 255 0
-3.4829400 -1.9920900 -11.6429000 0 255 0
-3.4148500 -2.0190400 -11.4045000 0 255 0
-3.4037600 -2.2338800 -11.3066000 0 255 0
-3.3802200 -2.3696300 -11.1946000 0 255 0
-3.3700000 -2.5309900 -11.1189000 0 255 0
-4.0830200 -3.7529000 -13.0931000 0 255 0
-4.0404600 -3.7283000 -12.9518000 0 255 0
-3.3698600 -2.6734100 -11.0687000 0 255 0
-3.9367900 -3.6555600 -12.6414000 0 255 0
-3.8066400 -3.4887400 -12.2674000 0 255 0
-3.8611500 -3.6143300 -12.4021000 0 255 0
-3.8143500 -3.5409900 -12.2694000 0 255 0
-3.8305900 -3.5866700 -12.3094000 0 255 0
-3.3682500 -2.8352000 -11.0162000 0 255 0
-3.3701300 -3.0191600 -10.9738000 0 255 0
-3.3831800 -3.1876800 -10.9590000 0 255 0
-3.3836500 -3.2097800 -10.9611000 0 255 0
-3.6016100 -3.6407200 -11.5489000 0 255 0
-3.5789800 -3.6042500 -11.4776000 0 255 0
-3.5649000 -3.6265300 -11.4278000 0 255 0
-3.4187400 -2.0110600 -11.4339000 0 255 0
-3.4559300 -2.0703100 -11.5431000 0 255 0
-3.4186800 -2.1020800 -11.4121000 0 255 0
-3.4111600 -2.1106300 -11.3787000 0 255 0
-3.3963100 -2.2530500 -11.2884000 0 255 0
-3.3779700 -2.3908100 -11.1898000 0 255 0
-4.1394500 -3.6996000 -13.3084000 0 255 0
-4.0884100 -3.7560200 -13.1240000 0 255 0
-4.0463600 -3.7300700 -12.9838000 0 255 0
-4.0128600 -3.7022300 -12.8828000 0 255 0
-3.9675400 -3.6791300 -12.7483000 0 255 0
-3.3667200 -2.6935900 -11.0617000 0 255 0
-3.9400500 -3.6617900 -12.6663000 0 255 0
-3.8011800 -3.4308400 -12.2713000 0 255 0
-3.3633500 -2.7135900 -11.0541000 0 255 0
-3.8986100 -3.6412900 -12.5289000 0 255 0
-3.8842800 -3.6375100 -12.4822000 0 255 0
-3.8619600 -3.6252500 -12.4204000 0 255 0
-3.8346100 -3.5905300 -12.3359000 0 255 0
-3.3646900 -2.8548500 -11.0081000 0 255 0
-3.3648400 -3.0373600 -10.9614000 0 255 0
-3.6196300 -3.6387300 -11.6203000 0 255 0
-3.3831500 -3.2311900 -10.9608000 0 255 0
-3.5785100 -3.6168400 -11.4916000 0 255 0
-3.4603700 -1.9176100 -11.6134000 0 255 0
-3.4715900 -1.9459200 -11.6372000 0 255 0
-3.4241300 -2.0068200 -11.4669000 0 255 0
-3.4342100 -2.0231600 -11.4920000 0 255 0
-3.4041200 -2.0242300 -11.3983000 0 255 0
-3.4036200 -2.1302000 -11.3602000 0 255 0
-3.3896200 -2.2724800 -11.2721000 0 255 0
-3.3749900 -2.4116100 -11.1832000 0 255 0
-3.3621300 -2.5488400 -11.0997000 0 255 0
-3.3618500 -2.5707600 -11.1001000 0 255 0
-4.0535900 -3.7293100 -13.0194000 0 255 0
-4.0172600 -3.7067200 -12.9110000 0 255 0
-3.9864600 -3.6743100 -12.8170000 0 255 0
-3.3605900 -2.7339200 -11.0481000 0 255 0
-3.9045000 -3.6417900 -12.5604000 0 255 0
-3.8386400 -3.5944000 -12.3624000 0 255 0
-3.8080200 -3.5673800 -12.2695000 0 255 0
-3.3612000 -2.8745000 -11.0002000 0 255 0
-3.3585800 -2.8946600 -10.9945000 0 255 0
-3.3616700 -3.0569400 -10.9543000 0 255 0
-3.6229700 -3.6414900 -11.6426000 0 255 0
-3.6109000 -3.6420300 -11.6024000 0 255 0
-3.3858100 -3.2549200 -10.9684000 0 255 0
-3.6026000 -3.6499300 -11.5666000 0 255 0
-3.3861200 -3.2769400 -10.9701000 0 255 0
-3.5473100 -1.9314500 -11.8958000 0 255 0
-3.4849000 -1.9605300 -11.6891000 0 255 0
-3.4172100 -2.0035000 -11.4574000 0 255 0
-3.4137200 -2.0196900 -11.4359000 0 255 0
-3.3993500 -2.1510700 -11.3502000 0 255 0
-3.3828200 -2.2917800 -11.2555000 0 255 0
-3.3708700 -2.4317800 -11.1737000 0 255 0
-4.1093100 -3.7336400 -13.2152000 0 255 0
-4.1073300 -3.7469700 -13.2073000 0 255 0
-3.3601700 -2.5919000 -11.0968000 0 255 0
-4.0595500 -3.7310900 -13.0517000 0 255 0
-4.0173200 -3.7198300 -12.9279000 0 255 0
-3.9695000 -3.6921900 -12.7731000 0 255 0
-3.9405100 -3.6737900 -12.6840000 0 255 0
-3.9099400 -3.6433000 -12.5908000 0 255 0
-3.7688500 -3.4209800 -12.1900000 0 255 0
-3.3568200 -2.7536100 -11.0394000 0 255 0
-3.8014400 -3.5128200 -12.2704000 0 255 0
-3.3565300 -2.9151800 -10.9903000 0 255 0
-3.3616300 -3.0786600 -10.9552000 0 255 0
-3.3633500 -3.1016100 -10.9605000 0 255 0
-3.6309200 -3.6341700 -11.6748000 0 255 0
-3.3832500 -3.2965800 -10.9638000 0 255 0
-3.4145500 -1.9648900 -11.4652000 0 255 0
-3.4537800 -2.0506300 -11.5696000 0 255 0
-3.4119600 -2.0653300 -11.4301000 0 255 0
-3.3951000 -2.1718900 -11.3402000 0 255 0
-3.3766400 -2.3113000 -11.2406000 0 255 0
-3.3647300 -2.4508700 -11.1589000 0 255 0
-4.1316100 -3.7118200 -13.3155000 0 255 0
-4.0664900 -3.7310600 -13.0867000 0 255 0
-3.3608600 -2.6143600 -11.0996000 0 255 0
-3.9808300 -3.6987200 -12.8191000 0 255 0
-3.9158000 -3.6439800 -12.6224000 0 255 0
-3.7909200 -3.4664800 -12.2613000 0 255 0
-3.3565900 -2.7754100 -11.0399000 0 255 0
-3.8403700 -3.6032900 -12.3831000 0 255 0
-3.8079100 -3.5801300 -12.2854000 0 255 0
-3.3549000 -2.9359400 -10.9871000 0 255 0
-3.3634500 -3.1234500 -10.9617000 0 255 0
-3.6354700 -3.6344100 -11.6998000 0 255 0
-3.5749400 -3.6367800 -11.4979000 0 255 0
-3.3832700 -3.3183800 -10.9648000 0 255 0
-3.3990500 -3.3521800 -11.0056000 0 255 0
-3.5428500 -3.6237500 -11.4032000 0 255 0
-3.4858900 -1.9447100 -11.7122000 0 255 0
-3.4715900 -1.9466900 -11.6647000 0 255 0
-3.4177700 -1.9559200 -11.4861000 0 255 0
-3.3876300 -2.1912500 -11.3218000 0 255 0
-3.3704400 -2.3307200 -11.2255000 0 255 0
-3.3579500 -2.4695500 -11.1424000 0 255 0
-4.0662900 -3.7448800 -13.1031000 0 255 0
-3.3576900 -2.6346500 -11.0925000 0 255 0
-4.0193000 -3.7291600 -12.9498000 0 255 0
-3.9878100 -3.6978700 -12.8538000 0 255 0
-3.9423800 -3.6829300 -12.7053000 0 255 0
-3.8672600 -3.6108000 -12.4837000 0 255 0
-3.7614500 -3.4503100 -12.1874000 0 255 0
-3.7958100 -3.5378200 -12.2722000 0 255 0
-3.3547400 -2.7962200 -11.0361000 0 255 0
-3.8112200 -3.5853900 -12.3101000 0 255 0
-3.3555800 -2.9582100 -10.9898000 0 255 0
-3.3552800 -2.9798400 -10.9901000 0 255 0
-3.3615000 -3.1438300 -10.9577000 0 255 0
-3.6295000 -3.6335200 -11.6947000 0 255 0
-3.6003800 -3.6316400 -11.6005000 0 255 0
-3.5787000 -3.6393100 -11.5224000 0 255 0
-3.5460500 -3.6273600 -11.4262000 0 255 0
-3.4641100 -1.9378700 -11.6602000 0 255 0
-3.4616800 -2.0680100 -11.6147000 0 255 0
-3.3818000 -2.2112600 -11.3077000 0 255 0
-3.3649300 -2.3504100 -11.2123000 0 255 0
-3.3526300 -2.4889100 -11.1296000 0 255 0
-3.3523900 -2.5109300 -11.1301000 0 255 0
-4.0238700 -3.7334600 -12.9785000 0 255 0
-3.9962100 -3.6942500 -12.8924000 0 255 0
-3.3523200 -2.6536200 -11.0797000 0 255 0
-3.9168300 -3.6547500 -12.6416000 0 255 0
-3.7676000 -3.4487800 -12.2195000 0 255 0
-3.7861900 -3.4896100 -12.2655000 0 255 0
-3.8379100 -3.6211800 -12.3930000 0 255 0
-3.8145500 -3.5906800 -12.3349000 0 255 0
-3.3528800 -2.8169900 -11.0324000 0 255 0
-3.3543800 -3.0010600 -10.9887000 0 255 0
-3.3614600 -3.1655500 -10.9585000 0 255 0
-3.6127000 -3.6245200 -11.6573000 0 255 0
-3.3637400 -3.1889700 -10.9653000 0 255 0
-3.5818700 -3.6432800 -11.5454000 0 255 0
-3.5530900 -3.6217600 -11.4587000 0 255 0
-3.4093300 -2.0439100 -11.4556000 0 255 0
-3.3748400 -2.2306800 -11.2906000 0 255 0
-3.3617000 -2.3711600 -11.2050000 0 255 0
-3.3477400 -2.5305700 -11.1191000 0 255 0
-4.0694000 -3.7523100 -13.1282000 0 255 0
-3.9959300 -3.7080100 -12.9085000 0 255 0
-3.9679400 -3.6701000 -12.8215000 0 255 0
-3.3479600 -2.6731200 -11.0695000 0 255 0
-3.9459000 -3.6773200 -12.7512000 0 255 0
-3.7560100 -3.4043600 -12.2078000 0 255 0
-3.8683400 -3.6250200 -12.5051000 0 255 0
-3.7911100 -3.5607300 -12.2764000 0 255 0
-3.3475600 -2.8355900 -11.0197000 0 255 0
-3.3446000 -2.8556100 -11.0132000 0 255 0
-3.3508600 -3.0204900 -10.9807000 0 255 0
-3.6172000 -3.6247300 -11.6822000 0 255 0
-3.3640200 -3.2109500 -10.9669000 0 255 0
-3.5835700 -3.6507600 -11.5649000 0 255 0
-3.5553700 -3.6277000 -11.4795000 0 255 0
-3.4506700 -1.8487600 -11.6653000 0 255 0
-3.4625200 -1.9194800 -11.6852000 0 255 0
-3.3905600 -2.1112000 -11.3850000 0 255 0
-3.3690600 -2.2505500 -11.2766000 0 255 0
-3.3571300 -2.3912000 -11.1942000 0 255 0
-3.3436800 -2.5504700 -11.1097000 0 255 0
-4.0751800 -3.7546700 -13.1604000 0 255 0
-4.0356400 -3.7370400 -13.0429000 0 255 0
-4.0262300 -3.7421100 -13.0015000 0 255 0
-3.3446000 -2.6931600 -11.0619000 0 255 0
-3.3412500 -2.7131600 -11.0543000 0 255 0
-3.7703800 -3.4549700 -12.2430000 0 255 0
-3.8778800 -3.6551700 -12.5431000 0 255 0
-3.7810300 -3.5136900 -12.2685000 0 255 0
-3.8176500 -3.5965100 -12.3591000 0 255 0
-3.8345300 -3.6410300 -12.4006000 0 255 0
-3.3411100 -2.8752500 -11.0052000 0 255 0
-3.3456000 -3.0387000 -10.9683000 0 255 0
-3.6233300 -3.6213900 -11.7108000 0 255 0
-3.6030600 -3.6278900 -11.6442000 0 255 0
-3.3642600 -3.2329100 -10.9685000 0 255 0
-3.3664400 -3.2563100 -10.9750000 0 255 0
-3.4514400 -1.8757800 -11.6695000 0 255 0
-3.4052200 -2.0169900 -11.4783000 0 255 0
-3.3873900 -2.1207200 -11.3831000 0 255 0
-3.3800600 -2.1295000 -11.3585000 0 255 0
-3.3621500 -2.2698300 -11.2597000 0 255 0
-3.3525700 -2.4111900 -11.1834000 0 255 0
-4.0847100 -3.7360000 -13.2097000 0 255 0
-3.3394900 -2.5702600 -11.0999000 0 255 0
-4.0460200 -3.7301800 -13.0871000 0 255 0
-3.9970400 -3.7190100 -12.9281000 0 255 0
-3.9518500 -3.6827500 -12.7910000 0 255 0
-3.9598500 -3.6995900 -12.8171000 0 255 0
-3.9148400 -3.6846900 -12.6694000 0 255 0
-3.3379100 -2.7331300 -11.0467000 0 255 0
-3.8844400 -3.6542000 -12.5765000 0 255 0
-3.8675900 -3.6428800 -12.5197000 0 255 0
-3.8205000 -3.6029000 -12.3827000 0 255 0
-3.7888000 -3.5783100 -12.2867000 0 255 0
-3.3373300 -2.8946700 -10.9965000 0 255 0
-3.3425300 -3.0583500 -10.9614000 0 255 0
-3.5839400 -3.6614000 -11.5810000 0 255 0
-3.3673100 -3.2787700 -10.9781000 0 255 0
-3.5557200 -3.6382700 -11.4955000 0 255 0
-3.4296000 -1.9379600 -11.5854000 0 255 0
-3.3742100 -2.1496800 -11.3443000 0 255 0
-3.3589000 -2.2907600 -11.2523000 0 255 0
-3.3480200 -2.4311300 -11.1727000 0 255 0
-4.1055400 -3.7164200 -13.3053000 0 255 0
-4.0485800 -3.7386100 -13.1108000 0 255 0
-3.3390100 -2.5920700 -11.0997000 0 255 0
-3.9998600 -3.7266600 -12.9523000 0 255 0
-3.9176600 -3.6918200 -12.6933000 0 255 0
-3.8898300 -3.6557400 -12.6069000 0 255 0
-3.7477900 -3.4357500 -12.2029000 0 255 0
-3.3350200 -2.7533400 -11.0403000 0 255 0
-3.3335600 -2.9140600 -10.9878000 0 255 0
-3.3398300 -3.0782400 -10.9555000 0 255 0
-3.3417600 -3.1013500 -10.9614000 0 255 0
-3.6138300 -3.6258900 -11.7020000 0 255 0
-3.6170400 -3.6454600 -11.7127000 0 255 0
-3.5598200 -3.6399100 -11.5209000 0 255 0
-3.3664300 -3.2999100 -10.9768000 0 255 0
-3.3686100 -3.3233900 -10.9833000 0 255 0
-3.3774100 -3.3519500 -11.0066000 0 255 0
-3.5240400 -3.6245800 -11.4015000 0 255 0
-3.3819900 -2.0887900 -11.4035000 0 255 0
-3.3660900 -2.1687900 -11.3241000 0 255 0
-3.3533900 -2.3105600 -11.2390000 0 255 0
-3.3430400 -2.4508000 -11.1608000 0 255 0
-3.3382000 -2.6136900 -11.0987000 0 255 0
-3.9592600 -3.7138700 -12.8323000 0 255 0
-3.8949100 -3.6580100 -12.6367000 0 255 0
-3.3372700 -2.7766500 -11.0471000 0 255 0
-3.8352800 -3.6303300 -12.4463000 0 255 0
-3.7736300 -3.5427200 -12.2657000 0 255 0
-3.8174800 -3.6220400 -12.3912000 0 255 0
-3.7899000 -3.5884000 -12.3057000 0 255 0
-3.3309400 -2.9341500 -10.9821000 0 255 0
-3.3419300 -3.1232200 -10.9627000 0 255 0
-3.5754800 -3.6473600 -11.5838000 0 255 0
-3.5622300 -3.6456000 -11.5422000 0 255 0
-3.5272100 -3.6281900 -11.4245000 0 255 0
-3.3818200 -3.3772500 -11.0187000 0 255 0
-3.3894100 -1.9463700 -11.4792000 0 255 0
-3.3841900 -1.9598400 -11.4581000 0 255 0
-3.3821900 -1.9648600 -11.4456000 0 255 0
-3.3602900 -2.1888300 -11.3100000 0 255 0
-3.3483600 -2.3305300 -11.2269000 0 255 0
-3.3376300 -2.4701800 -11.1478000 0 255 0
-4.0495800 -3.7501200 -13.1304000 0 255 0
-3.3341800 -2.6334600 -11.0893000 0 255 0
-3.9685900 -3.7082000 -12.8734000 0 255 0
-3.7438100 -3.4573600 -12.2089000 0 255 0
-3.7616900 -3.4996600 -12.2531000 0 255 0
-3.3341600 -2.7966900 -11.0401000 0 255 0
-3.7933900 -3.5932500 -12.3310000 0 255 0
-3.3334700 -2.8182000 -11.0393000 0 255 0
-3.3326400 -2.9570900 -10.9874000 0 255 0
-3.3336200 -2.9795700 -10.9909000 0 255 0
-3.3397100 -3.1434100 -10.9580000 0 255 0
-3.6132300 -3.6390100 -11.7159000 0 255 0
-3.3417000 -3.1666000 -10.9641000 0 255 0
-3.5691100 -3.6406800 -11.5747000 0 255 0
-3.5313400 -3.6295100 -11.4499000 0 255 0
-3.4462700 -1.7741900 -11.7265000 0 255 0
-3.4110800 -1.8580500 -11.5810000 0 255 0
-3.4528300 -1.9342900 -11.6997000 0 255 0
-3.3811800 -1.9402100 -11.4551000 0 255 0
-3.3511100 -2.2072800 -11.2869000 0 255 0
-3.3437900 -2.3506600 -11.2161000 0 255 0
-3.3344600 -2.4906800 -11.1406000 0 255 0
-3.3314300 -2.5112300 -11.1338000 0 255 0
-4.0523800 -3.7581600 -13.1548000 0 255 0
-4.0053000 -3.7424400 -13.0002000 0 255 0
-3.3295000 -2.6528100 -11.0782000 0 255 0
-3.9201600 -3.6833200 -12.7387000 0 255 0
-3.8946600 -3.6714200 -12.6525000 0 255 0
-3.8507400 -3.6155800 -12.5222000 0 255 0
-3.8620000 -3.6460200 -12.5535000 0 255 0
-3.7974800 -3.5968400 -12.3578000 0 255 0
-3.8141300 -3.6418900 -12.3987000 0 255 0
-3.7674000 -3.5691100 -12.2658000 0 255 0
-3.3281800 -2.8368000 -11.0267000 0 255 0
-3.3325900 -3.0007000 -10.9893000 0 255 0
-3.5965900 -3.6304900 -11.6750000 0 255 0
-3.3424200 -3.1889000 -10.9669000 0 255 0
-3.5842500 -3.6478900 -11.6331000 0 255 0
-3.5760500 -3.6561200 -11.6002000 0 255 0
-3.5364400 -3.6285300 -11.4778000 0 255 0
-3.3763400 -1.9222300 -11.4602000 0 255 0
-3.3752100 -2.0516600 -11.4214000 0 255 0
-3.3464900 -2.2276900 -11.2759000 0 255 0
-3.3392300 -2.3707500 -11.2052000 0 255 0
-3.3283400 -2.5317000 -11.1268000 0 255 0
-4.0117800 -3.7429800 -13.0342000 0 255 0
-3.9747100 -3.7222800 -12.9230000 0 255 0
-3.3258100 -2.6726800 -11.0697000 0 255 0
-3.3224900 -2.6927200 -11.0621000 0 255 0
-3.8637700 -3.6550700 -12.5746000 0 255 0
-3.7452000 -3.4666300 -12.2289000 0 255 0
-3.7603100 -3.5152800 -12.2659000 0 255 0
-3.8181300 -3.6458600 -12.4254000 0 255 0
-3.3250900 -2.8567400 -11.0197000 0 255 0
-3.3293900 -3.0203400 -10.9820000 0 255 0
-3.6078400 -3.6258500 -11.7301000 0 255 0
-3.5921600 -3.6206800 -11.6788000 0 255 0
-3.3451300 -3.2126700 -10.9747000 0 255 0
-3.3458200 -3.2349800 -10.9774000 0 255 0
-3.5651800 -3.6615700 -11.5800000 0 255 0
-3.5406100 -3.6298600 -11.5034000 0 255 0
-3.5039700 -3.6172200 -11.3816000 0 255 0
-3.4298600 -1.7965100 -11.6792000 0 255 0
-3.4188200 -1.8321000 -11.6400000 0 255 0
-3.4253400 -1.8988500 -11.6381000 0 255 0
-3.3742600 -1.8992100 -11.4758000 0 255 0
-3.4009600 -1.9778700 -11.5310000 0 255 0
-3.3445900 -2.2493100 -11.2721000 0 255 0
-3.3346800 -2.3907900 -11.1944000 0 255 0
-4.0586600 -3.7410000 -13.1987000 0 255 0
-3.3232100 -2.5510200 -11.1145000 0 255 0
-4.0176500 -3.7447900 -13.0666000 0 255 0
-3.9303200 -3.6805600 -12.7947000 0 255 0
-3.9388700 -3.7004500 -12.8152000 0 255 0
-3.3191600 -2.7127300 -11.0545000 0 255 0
-3.8916700 -3.6905500 -12.6612000 0 255 0
-3.8478300 -3.6378200 -12.5286000 0 255 0
-3.7994900 -3.6050100 -12.3794000 0 255 0
-3.7656700 -3.5854200 -12.2775000 0 255 0
-3.3207000 -2.8758100 -11.0094000 0 255 0
-3.3265600 -3.0402100 -10.9757000 0 255 0
-3.5965300 -3.6220200 -11.7054000 0 255 0
-3.3489300 -3.2591100 -10.9863000 0 255 0
-3.3506700 -3.2822500 -10.9917000 0 255 0
-3.5071000 -3.6208200 -11.4045000 0 255 0
-3.4104000 -1.8177200 -11.6226000 0 255 0
-3.3559300 -2.1386500 -11.3538000 0 255 0
-3.3440600 -2.2715400 -11.2718000 0 255 0
-3.3301500 -2.4107800 -11.1836000 0 255 0
-4.0790100 -3.7219200 -13.2932000 0 255 0
-3.3174300 -2.5699100 -11.1005000 0 255 0
-4.0287500 -3.7364200 -13.1129000 0 255 0
-3.9784600 -3.7280000 -12.9497000 0 255 0
-3.9432400 -3.7046500 -12.8434000 0 255 0
-3.8946900 -3.6971800 -12.6856000 0 255 0
-3.3158300 -2.7326900 -11.0469000 0 255 0
-3.8669800 -3.6611200 -12.5994000 0 255 0
-3.7273600 -3.4366300 -12.2010000 0 255 0
-3.7425700 -3.4851200 -12.2383000 0 255 0
-3.8011800 -3.6139200 -12.4001000 0 255 0
-3.3163200 -2.8948400 -10.9991000 0 255 0
-3.3228400 -3.0594100 -10.9671000 0 255 0
-3.3206500 -3.0796500 -10.9625000 0 255 0
-3.6023300 -3.6200500 -11.7356000 0 255 0
-3.5649500 -3.6736400 -11.5947000 0 255 0
-3.5409600 -3.6404500 -11.5195000 0 255 0
-3.3500000 -3.3035900 -10.9909000 0 255 0
-3.5086400 -3.6283700 -11.4235000 0 255 0
-3.4101900 -1.8443500 -11.6240000 0 255 0
-3.3724200 -1.8768200 -11.4920000 0 255 0
-3.3712300 -2.0251200 -11.4443000 0 255 0
-3.3536700 -2.1502600 -11.3506000 0 255 0
-3.3372100 -2.2907800 -11.2549000 0 255 0
-3.3256300 -2.4307200 -11.1729000 0 255 0
-4.0297400 -3.7479400 -13.1325000 0 255 0
-3.3205800 -2.5937700 -11.1098000 0 255 0
-3.9822200 -3.7337500 -12.9765000 0 255 0
-3.9381700 -3.6823600 -12.8421000 0 255 0
-3.9476300 -3.7088700 -12.8717000 0 255 0
-3.8685300 -3.6707000 -12.6200000 0 255 0
-3.3131500 -2.7530100 -11.0410000 0 255 0
-3.7510400 -3.5486200 -12.2580000 0 255 0
-3.7655200 -3.5982300 -12.2933000 0 255 0
-3.3119500 -2.9138200 -10.9888000 0 255 0
-3.3217100 -3.1021700 -10.9662000 0 255 0
-3.5451500 -3.6418000 -11.5453000 0 255 0
-3.3549200 -3.3291900 -11.0044000 0 255 0
-3.5124600 -3.6303500 -11.4482000 0 255 0
-3.3570300 -3.3526900 -11.0107000 0 255 0
-3.3690900 -1.8506700 -11.5047000 0 255 0
-3.3793500 -1.8857200 -11.5208000 0 255 0
-3.3422200 -2.1679100 -11.3214000 0 255 0
-3.3315100 -2.3104800 -11.2410000 0 255 0
-3.3206800 -2.4503800 -11.1610000 0 255 0
-3.3201100 -2.6156000 -11.1096000 0 255 0
-3.9840900 -3.7433000 -12.9982000 0 255 0
-3.8751000 -3.6697700 -12.6538000 0 255 0
-3.8418200 -3.6458800 -12.5528000 0 255 0
-3.3154200 -2.7763500 -11.0479000 0 255 0
-3.7363800 -3.5117100 -12.2385000 0 255 0
-3.8005900 -3.6278400 -12.4148000 0 255 0
-3.7689600 -3.6030900 -12.3185000 0 255 0
-3.3089900 -2.9336800 -10.9822000 0 255 0
-3.3221600 -3.1242600 -10.9683000 0 255 0
-3.5503300 -3.6408500 -11.5737000 0 255 0
-3.5175100 -3.6293600 -11.4761000 0 255 0
-3.3607900 -3.3775100 -11.0213000 0 255 0
-3.3674800 -1.9994700 -11.4676000 0 255 0
-3.3499100 -2.1042400 -11.3731000 0 255 0
-3.3364200 -2.1879200 -11.3072000 0 255 0
-3.3258300 -2.3301200 -11.2271000 0 255 0
-3.3153000 -2.4697600 -11.1480000 0 255 0
-3.3121500 -2.4902600 -11.1408000 0 255 0
-4.0287200 -3.7633900 -13.1468000 0 255 0
-3.9930800 -3.7387700 -13.0390000 0 255 0
-3.3120000 -2.6330300 -11.0895000 0 255 0
-3.9490400 -3.7191800 -12.8922000 0 255 0
-3.8889000 -3.7001400 -12.7051000 0 255 0
-3.8276800 -3.6170300 -12.5188000 0 255 0
-3.7286600 -3.4564900 -12.2449000 0 255 0
-3.7238900 -3.4695500 -12.2247000 0 255 0
-3.3122000 -2.7963100 -11.0406000 0 255 0
-3.7724200 -3.6079700 -12.3438000 0 255 0
-3.3096700 -2.8166600 -11.0350000 0 255 0
-3.7437500 -3.5774600 -12.2552000 0 255 0
-3.3088600 -2.9554000 -10.9828000 0 255 0
-3.3110000 -2.9786500 -10.9893000 0 255 0
-3.3210300 -3.1452300 -10.9663000 0 255 0
-3.3216600 -3.1674600 -10.9689000 0 255 0
-3.5506900 -3.6514900 -11.5898000 0 255 0
-3.4870300 -3.6134500 -11.3846000 0 255 0
-3.3772300 -1.8662800 -11.5470000 0 255 0
-3.3527300 -1.9594200 -11.4365000 0 255 0
-3.3307900 -2.2079400 -11.2934000 0 255 0
-3.3210200 -2.3501200 -11.2155000 0 255 0
-3.3115300 -2.5121000 -11.1403000 0 255 0
-4.0151400 -3.7219300 -13.1317000 0 255 0
-4.0293700 -3.7708800 -13.1679000 0 255 0
-3.9963400 -3.7456600 -13.0646000 0 255 0
-3.9539600 -3.7224300 -12.9220000 0 255 0
-3.3040700 -2.6504700 -11.0698000 0 255 0
-3.9203500 -3.6962700 -12.8198000 0 255 0
-3.8757100 -3.6814000 -12.6719000 0 255 0
-3.8440500 -3.6539200 -12.5752000 0 255 0
-3.8532200 -3.6764000 -12.6014000 0 255 0
-3.7346600 -3.5280900 -12.2502000 0 255 0
-3.7779300 -3.6083800 -12.3745000 0 255 0
-3.3059700 -2.8362400 -11.0264000 0 255 0
-3.3082300 -2.9985900 -10.9832000 0 255 0
-3.3235900 -3.1906600 -10.9748000 0 255 0
-3.3258100 -3.2141000 -10.9815000 0 255 0
-3.5197900 -3.6352000 -11.4970000 0 255 0
-3.4901400 -3.6170400 -11.4075000 0 255 0
-3.3452700 -1.8998200 -11.4405000 0 255 0
-3.3465800 -1.9250100 -11.4320000 0 255 0
-3.3167600 -2.3703400 -11.2054000 0 255 0
-3.3111400 -2.5340600 -11.1403000 0 255 0
-3.9583900 -3.7267000 -12.9506000 0 255 0
-3.9222200 -3.7055200 -12.8415000 0 255 0
-3.3037000 -2.6722600 -11.0699000 0 255 0
-3.3015400 -2.6929900 -11.0653000 0 255 0
-3.8956100 -3.7038000 -12.7482000 0 255 0
-3.8775100 -3.6905400 -12.6932000 0 255 0
-3.7277300 -3.4732100 -12.2511000 0 255 0
-3.8233500 -3.6421600 -12.5196000 0 255 0
-3.7841500 -3.6072800 -12.4072000 0 255 0
-3.7431500 -3.5912600 -12.2698000 0 255 0
-3.3022600 -2.8557700 -11.0178000 0 255 0
-3.3107300 -3.0221200 -10.9906000 0 255 0
-3.3074600 -3.0416800 -10.9831000 0 255 0
-3.5845600 -3.6171100 -11.7379000 0 255 0
-3.5882100 -3.6394900 -11.7406000 0 255 0
-3.5752500 -3.6275700 -11.6986000 0 255 0
-3.5640700 -3.6426200 -11.6546000 0 255 0
-3.3264900 -3.2364200 -10.9842000 0 255 0
-3.5529900 -3.6575200 -11.6110000 0 255 0
-3.5229400 -3.6389700 -11.5202000 0 255 0
-3.4929900 -3.6213000 -11.4299000 0 255 0
-3.3870800 -1.7649100 -11.6288000 0 255 0
-3.3516600 -1.8664400 -11.4821000 0 255 0
-3.3503100 -1.8866400 -11.4663000 0 255 0
-3.3540900 -1.9374800 -11.4727000 0 255 0
-3.3426300 -2.0650100 -11.3899000 0 255 0
-3.3193400 -2.2252300 -11.2642000 0 255 0
-3.3192600 -2.2476500 -11.2651000 0 255 0
-3.3122400 -2.3903700 -11.1946000 0 255 0
-3.3053600 -2.5530300 -11.1262000 0 255 0
-4.0114400 -3.7426800 -13.1389000 0 255 0
-3.9628400 -3.7310000 -12.9793000 0 255 0
-3.2977700 -2.7127200 -11.0565000 0 255 0
-3.8634400 -3.6727200 -12.6580000 0 255 0
-3.8279900 -3.6492100 -12.5549000 0 255 0
-3.8413400 -3.6724800 -12.5845000 0 255 0
-3.7892600 -3.6086900 -12.4370000 0 255 0
-3.7307200 -3.5494900 -12.2562000 0 255 0
-3.2990300 -2.8755700 -11.0104000 0 255 0
-3.3040500 -3.0611100 -10.9753000 0 255 0
-3.3295100 -3.2605100 -10.9929000 0 255 0
-3.3329900 -3.2850000 -11.0028000 0 255 0
-3.5261400 -3.6426400 -11.5436000 0 255 0
-3.3520600 -3.3852700 -11.0318000 0 255 0
-3.3836900 -1.7906600 -11.6205000 0 255 0
-3.3718900 -1.8348600 -11.5670000 0 255 0
-3.3565700 -1.8528600 -11.5076000 0 255 0
-3.3199300 -2.2704300 -11.2680000 0 255 0
-3.3076800 -2.4103300 -11.1837000 0 255 0
-3.2998100 -2.5720600 -11.1127000 0 255 0
-3.9723900 -3.7251500 -13.0216000 0 255 0
