-0.4867580 1.4255200 -12.0886000 255 0 255
-0.4873280 1.4035900 -12.1025000 255 0 255
-0.4864720 1.3946900 -12.0991000 255 0 255
-0.4879000 1.3816100 -12.1164000 255 0 255
-0.4891410 1.3615400 -12.1405000 255 0 255
-0.4900530 1.3404000 -12.1596000 255 0 255
-0.4851230 1.9601400 -12.2746000 255 0 255
-0.5076820 1.8772600 -12.6925000 255 0 255
-0.5076490 1.8620200 -12.7412000 255 0 255
-0.4890530 1.3136900 -12.1498000 255 0 255
-0.4860770 1.2715100 -12.1304000 255 0 255
-0.4841500 1.9633200 -12.3058000 255 0 255
-0.5040180 1.8719300 -12.7233000 255 0 255
-0.5070860 1.8571700 -12.7811000 255 0 255
-0.4771150 1.9691700 -12.2376000 255 0 255
-0.5044060 1.8942200 -12.7845000 255 0 255
-0.5034110 1.8682600 -12.7671000 255 0 255
-0.4702330 1.8640600 -12.0822000 255 0 255
-0.5015800 1.9342700 -12.7852000 255 0 255
-0.5026780 1.8664300 -12.8091000 255 0 255
-0.4667690 1.9020900 -12.1184000 255 0 255
-0.4686240 1.8804000 -12.1024000 255 0 255
-0.4679270 1.8571300 -12.1240000 255 0 255
-0.4679550 1.8459200 -12.0841000 255 0 255
-0.4653730 1.8127400 -12.0495000 255 0 255
-0.4740100 1.4101900 -12.0618000 255 0 255
-0.4819210 1.9409900 -12.4612000 255 0 255
-0.4655200 1.9106400 -12.1449000 255 0 255
-0.4639470 1.7840000 -12.0328000 255 0 255
-0.4634340 1.7587100 -12.0303000 255 0 255
-0.4633010 1.7348300 -12.0337000 255 0 255
-0.4626830 1.7091800 -12.0295000 255 0 255
-0.4798730 1.9488400 -12.5238000 255 0 255
-0.4810120 1.9425400 -12.4945000 255 0 255
-0.4642060 1.9205900 -12.1703000 255 0 255
-0.4616730 1.6821700 -12.0192000 255 0 255
-0.4604850 1.6545800 -12.0061000 255 0 255
-0.4597520 1.6286400 -12.0001000 255 0 255
-0.4585700 1.6011900 -11.9871000 255 0 255
-0.4752870 1.2520500 -12.2244000 255 0 255
-0.4795770 1.9374800 -12.5683000 255 0 255
-0.4612930 1.9466700 -12.2162000 255 0 255
-0.4627270 1.9341300 -12.1928000 255 0 255
-0.4591870 1.5799700 -12.0022000 255 0 255
-0.4591630 1.5565100 -12.0072000 255 0 255
-0.4592250 1.5333200 -12.0136000 255 0 255
-0.4633940 1.4529100 -12.1006000 255 0 255
-0.4706240 1.2991300 -12.1619000 255 0 255
-0.4600790 1.9543500 -12.2436000 255 0 255
-0.4813110 1.8833800 -12.6497000 255 0 255
-0.4550950 1.5209800 -12.0142000 255 0 255
-0.4556060 1.4955600 -12.0291000 255 0 255
-0.4610610 1.4218800 -12.0695000 255 0 255
-0.4628300 1.4038400 -12.1027000 255 0 255
-0.4650180 1.3632000 -12.1480000 255 0 255
-0.4661190 1.3427500 -12.1708000 255 0 255
-0.4658370 1.3180700 -12.1718000 255 0 255
-0.4588320 1.9627700 -12.2704000 255 0 255
-0.4793330 1.8891100 -12.7156000 255 0 255
-0.4804880 1.8827700 -12.6856000 255 0 255
-0.4564820 1.4711100 -12.0495000 255 0 255
-0.4574690 1.4468900 -12.0715000 255 0 255
-0.4560110 1.4158000 -12.0570000 255 0 255
-0.4582780 1.3949700 -12.0982000 255 0 255
-0.4605020 1.3738300 -12.1389000 255 0 255
-0.4614600 1.2696500 -12.1303000 255 0 255
-0.4565490 1.9748300 -12.3282000 255 0 255
-0.4579390 1.9633300 -12.3038000 255 0 255
-0.4800230 1.8564400 -12.7796000 255 0 255
-0.4567040 1.2822100 -12.1038000 255 0 255
-0.4777380 1.8865300 -12.7891000 255 0 255
-0.4767710 1.8688800 -12.7633000 255 0 255
-0.4438890 1.8702200 -12.0753000 255 0 255
-0.4752980 1.9199800 -12.7956000 255 0 255
-0.4761050 1.8648000 -12.8079000 255 0 255
-0.4423050 1.8860500 -12.0959000 255 0 255
-0.4434370 1.8461700 -12.0843000 255 0 255
-0.4405040 1.8112700 -12.0426000 255 0 255
-0.4386130 1.7805900 -12.0177000 255 0 255
-0.4554770 1.9402700 -12.4598000 255 0 255
-0.4394380 1.9107500 -12.1428000 255 0 255
-0.4407280 1.9017500 -12.1167000 255 0 255
-0.4382930 1.7560300 -12.0181000 255 0 255
-0.4386280 1.7339700 -12.0292000 255 0 255
-0.4382920 1.7093400 -12.0293000 255 0 255
-0.4372470 1.6820900 -12.0180000 255 0 255
-0.4547980 1.9357100 -12.4982000 255 0 255
-0.4380240 1.9226300 -12.1666000 255 0 255
-0.4359210 1.6538600 -12.0021000 255 0 255
-0.4359000 1.6304600 -12.0074000 255 0 255
-0.4369240 1.6108000 -12.0296000 255 0 255
-0.4353380 1.5817600 -12.0094000 255 0 255
-0.4347970 1.5564900 -12.0062000 255 0 255
-0.4532770 1.9299400 -12.5727000 255 0 255
-0.4363560 1.9404400 -12.1857000 255 0 255
-0.4554910 1.9003600 -12.5629000 255 0 255
-0.4346320 1.5325600 -12.0091000 255 0 255
-0.4348210 1.5098400 -12.0178000 255 0 255
-0.4359840 1.4199700 -12.0591000 255 0 255
-0.4336820 1.9605100 -12.2365000 255 0 255
-0.4348570 1.9543000 -12.2080000 255 0 255
-0.4545800 1.8805800 -12.6500000 255 0 255
-0.4385620 1.3575500 -12.1179000 255 0 255
-0.4401360 1.3388200 -12.1492000 255 0 255
-0.4411860 1.3183200 -12.1720000 255 0 255
-0.4322800 1.9720700 -12.2608000 255 0 255
-0.4534270 1.8862000 -12.6805000 255 0 255
-0.4263410 1.4921900 -12.0093000 255 0 255
-0.4317650 1.9626200 -12.3023000 255 0 255
-0.4524250 1.8883800 -12.7141000 255 0 255
-0.4529610 1.8557100 -12.7781000 255 0 255
-0.4271690 1.4677800 -12.0296000 255 0 255
-0.4280010 1.4432900 -12.0500000 255 0 255
-0.4292470 1.4199000 -12.0768000 255 0 255
-0.4300870 1.3952500 -12.0974000 255 0 255
-0.4309300 1.3705100 -12.1180000 255 0 255
-0.4288220 1.9888400 -12.3485000 255 0 255
-0.4300300 1.9819800 -12.3202000 255 0 255
-0.4508730 1.8823100 -12.7906000 255 0 255
-0.4501930 1.8687100 -12.7604000 255 0 255
-0.4192070 1.8710100 -12.0835000 255 0 255
-0.4197320 1.8465700 -12.0588000 255 0 255
-0.4286590 1.3631400 -12.1170000 255 0 255
-0.4285160 1.2824900 -12.1030000 255 0 255
-0.4460330 1.9508500 -12.8020000 255 0 255
-0.4195880 1.9957400 -12.2230000 255 0 255
-0.4487910 1.9088600 -12.8032000 255 0 255
-0.4495380 1.8630500 -12.8068000 255 0 255
-0.4160850 1.8902100 -12.0906000 255 0 255
-0.4167990 1.8377300 -12.0489000 255 0 255
-0.4156710 1.8098000 -12.0357000 255 0 255
-0.4142310 1.7806900 -12.0173000 255 0 255
-0.4138430 1.7558600 -12.0166000 255 0 255
-0.4447420 1.9594600 -12.8303000 255 0 255
-0.4242860 1.9860200 -12.3557000 255 0 255
-0.4281250 1.9613400 -12.4400000 255 0 255
-0.4146830 1.9015300 -12.1149000 255 0 255
-0.4142090 1.7340100 -12.0285000 255 0 255
-0.4130700 1.7062400 -12.0151000 255 0 255
-0.4124120 1.6804000 -12.0098000 255 0 255
-0.4111300 1.6522000 -11.9939000 255 0 255
-0.4281500 1.9383900 -12.4939000 255 0 255
-0.4118220 1.9255700 -12.1623000 255 0 255
-0.4133700 1.9106100 -12.1409000 255 0 255
-0.4101240 1.6251300 -11.9827000 255 0 255
-0.4098220 1.6007500 -11.9833000 255 0 255
-0.4095650 1.5765400 -11.9847000 255 0 255
-0.4100100 1.5549100 -11.9980000 255 0 255
-0.4100640 1.5318000 -12.0047000 255 0 255
-0.4206460 1.2970300 -12.1637000 255 0 255
-0.4266530 1.9292200 -12.5712000 255 0 255
-0.4279700 1.9201800 -12.5440000 255 0 255
-0.4099320 1.9491800 -12.1766000 255 0 255
-0.4100220 1.5083300 -12.0097000 255 0 255
-0.4099220 1.4846300 -12.0137000 255 0 255
-0.4135550 1.3798100 -12.1042000 255 0 255
-0.4136980 1.3566800 -12.1124000 255 0 255
-0.4155370 1.3390700 -12.1495000 255 0 255
-0.4083420 1.9652400 -12.1971000 255 0 255
-0.4281810 1.8694600 -12.6574000 255 0 255
-0.4165360 1.3185800 -12.1722000 255 0 255
-0.4052270 1.9957200 -12.2393000 255 0 255
-0.4072840 1.9678000 -12.2286000 255 0 255
-0.4267360 1.8813200 -12.6826000 255 0 255
-0.4046110 1.9869200 -12.2803000 255 0 255
-0.4255190 1.8876500 -12.7126000 255 0 255
-0.4250410 1.8759200 -12.7583000 255 0 255
-0.4036080 1.3842800 -12.0743000 255 0 255
-0.4033330 1.9949500 -12.3075000 255 0 255
-0.4238460 1.8815800 -12.7891000 255 0 255
-0.3940770 1.8686200 -12.0730000 255 0 255
-0.3919640 1.8362400 -12.0420000 255 0 255
-0.3979530 1.4644600 -12.0098000 255 0 255
-0.3987370 1.4400100 -12.0301000 255 0 255
-0.3995240 1.4154800 -12.0505000 255 0 255
-0.4007090 1.3920300 -12.0774000 255 0 255
-0.4036410 1.2920300 -12.1556000 255 0 255
-0.4014430 1.9937500 -12.3765000 255 0 255
-0.4190890 1.9508600 -12.7999000 255 0 255
-0.4228910 1.8812700 -12.8253000 255 0 255
-0.3901420 1.8877100 -12.0906000 255 0 255
-0.3918190 1.8693200 -12.0720000 255 0 255
-0.3901240 1.8051700 -12.0158000 255 0 255
-0.3897840 1.7805200 -12.0158000 255 0 255
-0.3891010 1.7544400 -12.0098000 255 0 255
-0.3888200 1.7300500 -12.0108000 255 0 255
-0.3909500 1.9958000 -12.2212000 255 0 255
-0.4014180 1.9692200 -12.4313000 255 0 255
-0.3885380 1.9041700 -12.1107000 255 0 255
-0.3877380 1.7024100 -11.9977000 255 0 255
-0.3871380 1.6767800 -11.9931000 255 0 255
-0.3870640 1.6532700 -11.9978000 255 0 255
-0.3864000 1.6274100 -11.9920000 255 0 255
-0.4011360 1.9511400 -12.4810000 255 0 255
-0.3857420 1.9537600 -12.1539000 255 0 255
-0.3870510 1.9174500 -12.1334000 255 0 255
-0.3855240 1.6007600 -11.9825000 255 0 255
-0.3852790 1.5766000 -11.9841000 255 0 255
-0.3856070 1.5546400 -11.9958000 255 0 255
-0.3855190 1.5310500 -12.0002000 255 0 255
-0.3851080 1.5062400 -11.9989000 255 0 255
-0.4001910 1.9500800 -12.5165000 255 0 255
-0.3997680 1.9353200 -12.5639000 255 0 255
-0.3837100 1.9540200 -12.1707000 255 0 255
-0.3854610 1.9335200 -12.1539000 255 0 255
-0.3849100 1.4822300 -12.0013000 255 0 255
-0.3841560 1.4561800 -11.9939000 255 0 255
-0.3869180 1.3960400 -12.0605000 255 0 255
-0.3873640 1.3741400 -12.0744000 255 0 255
-0.3904850 1.3614200 -12.1356000 255 0 255
-0.3909390 1.3393300 -12.1497000 255 0 255
-0.3913950 1.3171800 -12.1638000 255 0 255
-0.3820900 1.9709500 -12.1904000 255 0 255
-0.4021170 1.8478700 -12.6738000 255 0 255
-0.3791610 1.9962800 -12.2368000 255 0 255
-0.3806950 1.9817100 -12.2152000 255 0 255
-0.3999670 1.8778200 -12.6835000 255 0 255
-0.3781560 1.9961800 -12.2706000 255 0 255
-0.3985610 1.8883100 -12.7099000 255 0 255
-0.3980470 1.8751900 -12.7568000 255 0 255
-0.3768810 2.0035100 -12.2983000 255 0 255
-0.3974770 1.8633900 -12.8029000 255 0 255
-0.3676380 1.8451600 -12.0559000 255 0 255
-0.3692690 1.8279500 -12.0363000 255 0 255
-0.3959010 1.8781400 -12.8259000 255 0 255
-0.3944100 1.8765400 -12.8253000 255 0 255
-0.3966140 1.8553400 -12.8093000 255 0 255
-0.3660320 1.8617000 -12.0760000 255 0 255
-0.3656480 1.8048300 -12.0136000 255 0 255
-0.3660870 1.7835800 -12.0278000 255 0 255
-0.3647790 1.7546900 -12.0100000 255 0 255
-0.3635400 1.7261800 -11.9934000 255 0 255
-0.3695710 1.4367400 -12.0103000 255 0 255
-0.3706870 1.4134100 -12.0370000 255 0 255
-0.3759670 1.2941700 -12.1655000 255 0 255
-0.3912970 1.9465100 -12.8374000 255 0 255
-0.3750720 1.9685100 -12.4298000 255 0 255
-0.3935540 1.9134700 -12.8307000 255 0 255
-0.3624130 1.9068200 -12.1066000 255 0 255
-0.3641990 1.8849200 -12.0908000 255 0 255
-0.3623050 1.6977900 -11.9769000 255 0 255
-0.3619510 1.6731700 -11.9765000 255 0 255
-0.3624170 1.6519800 -11.9912000 255 0 255
-0.3613950 1.6245900 -11.9786000 255 0 255
-0.3609220 1.5995100 -11.9760000 255 0 255
-0.3745990 1.9528200 -12.4775000 255 0 255
-0.3607770 1.9243200 -12.1259000 255 0 255
-0.3607900 1.5758300 -11.9797000 255 0 255
-0.3607920 1.5526700 -11.9858000 255 0 255
-0.3610300 1.5304200 -11.9963000 255 0 255
-0.3604670 1.5050000 -11.9921000 255 0 255
-0.3601910 1.4807100 -11.9931000 255 0 255
-0.3599150 1.4564300 -11.9941000 255 0 255
-0.3739420 1.9421100 -12.5212000 255 0 255
-0.3731670 1.9346000 -12.5624000 255 0 255
-0.3573740 1.9632900 -12.1612000 255 0 255
-0.3591080 1.9428100 -12.1444000 255 0 255
-0.3632200 1.3988500 -12.0736000 255 0 255
-0.3630190 1.3746700 -12.0760000 255 0 255
-0.3658410 1.3614000 -12.1344000 255 0 255
-0.3661090 1.3387500 -12.1456000 255 0 255
-0.3667680 1.3174300 -12.1640000 255 0 255
-0.3557140 1.9816100 -12.1798000 255 0 255
-0.3730050 1.9094300 -12.6189000 255 0 255
-0.3530700 1.9978400 -12.2335000 255 0 255
-0.3543740 1.9902900 -12.2062000 255 0 255
-0.3726010 1.8909400 -12.6701000 255 0 255
-0.3520260 1.9974700 -12.2675000 255 0 255
-0.3700900 1.9022400 -12.7312000 255 0 255
-0.3713710 1.8958900 -12.7012000 255 0 255
-0.3448970 1.8083300 -12.0166000 255 0 255
-0.3443950 1.8022400 -12.0259000 255 0 255
-0.3508910 1.9997600 -12.2994000 255 0 255
-0.3691780 1.8714000 -12.7880000 255 0 255
-0.3704440 1.8612600 -12.8026000 255 0 255
-0.3429220 1.8367100 -12.0275000 255 0 255
-0.3410160 1.8037200 -12.0081000 255 0 255
-0.3417900 1.7841500 -12.0294000 255 0 255
-0.3692490 1.8648100 -12.8354000 255 0 255
-0.3397500 1.8687100 -12.0685000 255 0 255
-0.3413380 1.8526300 -12.0481000 255 0 255
-0.3400100 1.7529100 -12.0016000 255 0 255
-0.3384010 1.7225600 -11.9771000 255 0 255
-0.3379980 1.6977100 -11.9757000 255 0 255
-0.3647970 1.9319500 -12.8482000 255 0 255
-0.3676180 1.8810000 -12.8572000 255 0 255
-0.3380440 1.8886100 -12.0859000 255 0 255
-0.3370660 1.6705300 -11.9642000 255 0 255
-0.3367900 1.6462800 -11.9652000 255 0 255
-0.3365140 1.6220200 -11.9662000 255 0 255
-0.3362380 1.5977700 -11.9672000 255 0 255
-0.3363250 1.5750500 -11.9752000 255 0 255
-0.3365330 1.5528200 -11.9856000 255 0 255
-0.3415810 1.4370200 -12.0095000 255 0 255
-0.3426380 1.4136900 -12.0361000 255 0 255
-0.3476300 1.2944600 -12.1647000 255 0 255
-0.3608470 1.9848300 -12.8731000 255 0 255
-0.3625850 1.9653100 -12.8546000 255 0 255
-0.3484490 1.9430300 -12.4837000 255 0 255
-0.3345930 1.9298000 -12.1195000 255 0 255
-0.3362720 1.9106800 -12.1016000 255 0 255
-0.3368640 1.5310400 -11.9983000 255 0 255
-0.3366610 1.5070300 -12.0007000 255 0 255
-0.3359490 1.4809600 -11.9933000 255 0 255
-0.3356740 1.4566800 -11.9943000 255 0 255
-0.3385030 1.3979700 -12.0681000 255 0 255
-0.3397010 1.3791600 -12.0977000 255 0 255
-0.3401650 1.3574400 -12.1131000 255 0 255
-0.3453500 1.2959300 -12.1601000 255 0 255
-0.3475640 1.9367900 -12.5237000 255 0 255
-0.3329030 1.9493200 -12.1371000 255 0 255
-0.3411880 1.3377500 -12.1393000 255 0 255
-0.3414690 1.3152100 -12.1512000 255 0 255
-0.3295370 1.9879900 -12.1726000 255 0 255
-0.3311450 1.9711100 -12.1529000 255 0 255
-0.3467850 1.9270600 -12.5668000 255 0 255
-0.3462760 1.9087100 -12.6175000 255 0 255
-0.3282720 1.9935500 -12.2015000 255 0 255
-0.3455870 1.8957500 -12.6638000 255 0 255
-0.3262070 1.9888000 -12.2726000 255 0 255
-0.3275000 1.9825600 -12.2440000 255 0 255
-0.3431850 1.9015100 -12.7297000 255 0 255
-0.3443660 1.8993200 -12.6961000 255 0 255
-0.3443110 1.8884300 -12.6864000 255 0 255
-0.3201820 1.8074200 -12.0174000 255 0 255
-0.3270090 1.3624400 -12.0504000 255 0 255
-0.3251090 1.9884100 -12.3068000 255 0 255
-0.3431450 1.8867600 -12.7278000 255 0 255
-0.3422060 1.8797900 -12.7754000 255 0 255
-0.3435350 1.8549200 -12.8060000 255 0 255
-0.3187330 1.8369900 -12.0427000 255 0 255
-0.3179240 1.8099400 -12.0331000 255 0 255
-0.3150160 1.7728600 -11.9813000 255 0 255
-0.3243630 1.9759900 -12.3510000 255 0 255
-0.3417850 1.8608000 -12.8370000 255 0 255
-0.3424530 1.8535500 -12.8432000 255 0 255
-0.3135520 1.8744200 -12.0620000 255 0 255
-0.3151620 1.8574800 -12.0423000 255 0 255
-0.3154370 1.7518600 -11.9963000 255 0 255
-0.3148810 1.7261900 -11.9917000 255 0 255
-0.3144850 1.7013000 -11.9904000 255 0 255
-0.3128680 1.6707800 -11.9644000 255 0 255
-0.3225800 1.9603500 -12.4326000 255 0 255
-0.3382490 1.9161200 -12.8601000 255 0 255
-0.3397260 1.8791100 -12.8564000 255 0 255
-0.3411480 1.8592200 -12.8743000 255 0 255
-0.3118550 1.8944900 -12.0793000 255 0 255
-0.3094950 1.6323700 -11.9029000 255 0 255
-0.3116950 1.6194600 -11.9539000 255 0 255
-0.3118940 1.5973600 -11.9644000 255 0 255
-0.3122130 1.5757400 -11.9774000 255 0 255
-0.3122350 1.5527800 -11.9845000 255 0 255
-0.3120270 1.5287900 -11.9868000 255 0 255
-0.3126770 1.5084800 -12.0066000 255 0 255
-0.3151110 1.4157300 -12.0448000 255 0 255
-0.3202540 1.2955600 -12.1589000 255 0 255
-0.3342280 1.9733000 -12.8813000 255 0 255
-0.3359420 1.9542400 -12.8623000 255 0 255
-0.3341920 1.9485100 -12.8574000 255 0 255
-0.3350250 1.9144200 -12.8511000 255 0 255
-0.3219780 1.9423100 -12.4822000 255 0 255
-0.3375350 1.8838200 -12.8555000 255 0 255
-0.3084180 1.9363700 -12.1123000 255 0 255
-0.3101350 1.9154400 -12.0958000 255 0 255
-0.3117090 1.4812100 -11.9935000 255 0 255
-0.3114350 1.4569300 -11.9946000 255 0 255
-0.3118540 1.4355300 -12.0096000 255 0 255
-0.3124490 1.4147800 -12.0283000 255 0 255
-0.3137450 1.3968000 -12.0612000 255 0 255
-0.3150500 1.3787100 -12.0943000 255 0 255
-0.3156560 1.3577000 -12.1133000 255 0 255
-0.3180330 1.3311400 -12.1307000 255 0 255
-0.3196840 1.3230800 -12.1624000 255 0 255
-0.3113550 1.3230800 -12.0016000 255 0 255
-0.3328240 1.9413700 -12.8536000 255 0 255
-0.3211390 1.9320800 -12.5256000 255 0 255
-0.3067820 1.9543800 -12.1311000 255 0 255
-0.3285870 1.9933200 -12.8620000 255 0 255
-0.3033280 1.9972000 -12.1631000 255 0 255
-0.3050460 1.9760800 -12.1469000 255 0 255
-0.3202640 1.9229200 -12.5682000 255 0 255
-0.3195470 1.9079900 -12.6160000 255 0 255
-0.3017660 2.0126500 -12.1839000 255 0 255
-0.3187270 1.8964000 -12.6611000 255 0 255
-0.3007350 2.0083400 -12.2209000 255 0 255
-0.3175070 1.8985900 -12.6946000 255 0 255
-0.3178880 1.8889600 -12.6827000 255 0 255
-0.2989250 1.9897000 -12.3037000 255 0 255
-0.3000550 1.9907500 -12.2690000 255 0 255
-0.3144950 1.9082800 -12.7401000 255 0 255
-0.3162820 1.9007900 -12.7282000 255 0 255
-0.3166320 1.8471700 -12.8106000 255 0 255
-0.2939880 1.8355100 -12.0358000 255 0 255
-0.2920370 1.8025200 -12.0015000 255 0 255
-0.2907630 1.7731100 -11.9815000 255 0 255
-0.2904870 1.7487900 -11.9825000 255 0 255
-0.2974380 2.0019500 -12.3274000 255 0 255
-0.3151390 1.8594900 -12.8354000 255 0 255
-0.3155920 1.8422600 -12.8509000 255 0 255
-0.2894470 1.8807100 -12.0914000 255 0 255
-0.2891230 1.8582200 -12.0397000 255 0 255
-0.2888680 1.8146500 -12.0357000 255 0 255
-0.2905430 1.7261100 -11.9906000 255 0 255
-0.2894710 1.6978700 -11.9747000 255 0 255
-0.2886700 1.6710300 -11.9646000 255 0 255
-0.2874640 1.6193900 -11.9527000 255 0 255
-0.2965650 1.9909200 -12.3706000 255 0 255
-0.2960380 1.9663700 -12.4254000 255 0 255
-0.3138150 1.8593800 -12.8758000 255 0 255
-0.3139560 1.8584800 -12.8727000 255 0 255
-0.2857340 1.8992600 -12.0735000 255 0 255
-0.2874180 1.8791400 -12.0563000 255 0 255
-0.2854490 1.6326200 -11.9032000 255 0 255
-0.2876510 1.5973400 -11.9635000 255 0 255
-0.2880680 1.5763200 -11.9792000 255 0 255
-0.2902780 1.5635000 -12.0330000 255 0 255
-0.2900030 1.5391100 -12.0340000 255 0 255
-0.2890640 1.5117200 -12.0209000 255 0 255
-0.2881290 1.4844100 -12.0078000 255 0 255
-0.3071350 1.9765000 -12.8763000 255 0 255
-0.3091400 1.9466000 -12.8669000 255 0 255
-0.3072640 1.9442600 -12.8443000 255 0 255
-0.3096840 1.9141600 -12.8480000 255 0 255
-0.2955070 1.9416000 -12.4808000 255 0 255
-0.2840320 1.9202000 -12.0900000 255 0 255
-0.2871960 1.4571800 -11.9948000 255 0 255
-0.2875820 1.4357800 -12.0099000 255 0 255
-0.2876390 1.4128900 -12.0179000 255 0 255
-0.2869320 1.3889000 -12.0506000 255 0 255
-0.2879610 1.3911000 -12.0317000 255 0 255
-0.2890810 1.3726300 -12.0625000 255 0 255
-0.3051530 1.9704700 -12.8481000 255 0 255
-0.2947940 1.9234100 -12.5308000 255 0 255
-0.2823050 1.9422000 -12.1056000 255 0 255
-0.2875740 1.3643600 -12.0716000 255 0 255
-0.2879900 1.3120900 -12.0972000 255 0 255
-0.2834030 1.3233600 -12.0007000 255 0 255
-0.2921160 1.9346700 -12.5910000 255 0 255
-0.2936330 1.9222000 -12.5667000 255 0 255
-0.2758570 2.0119500 -12.1825000 255 0 255
-0.2774200 1.9965000 -12.1617000 255 0 255
-0.2920000 1.8922300 -12.6626000 255 0 255
-0.2747650 2.0076400 -12.2195000 255 0 255
-0.2892420 1.9130100 -12.6921000 255 0 255
-0.2906480 1.8978700 -12.6931000 255 0 255
-0.2700010 1.8609300 -12.0379000 255 0 255
-0.2693420 1.8343800 -12.0304000 255 0 255
-0.2741400 1.9834100 -12.2730000 255 0 255
-0.2731710 1.9732800 -12.3152000 255 0 255
-0.2878690 1.9130300 -12.7317000 255 0 255
-0.2893790 1.9000600 -12.7267000 255 0 255
-0.2884550 1.8883800 -12.7725000 255 0 255
-0.2667860 1.7976900 -11.9807000 255 0 255
-0.2665110 1.7733600 -11.9817000 255 0 255
-0.2662360 1.7490400 -11.9827000 255 0 255
-0.2661980 1.7259500 -11.9890000 255 0 255
-0.2716460 1.9866000 -12.3381000 255 0 255
-0.2878750 1.8626100 -12.8309000 255 0 255
-0.2884940 1.8581900 -12.8338000 255 0 255
-0.2648190 1.6959200 -11.9654000 255 0 255
-0.2629150 1.6633100 -11.9300000 255 0 255
-0.2620230 1.6360000 -11.9172000 255 0 255
-0.2623710 1.6149700 -11.9321000 255 0 255
-0.2630930 1.5957400 -11.9553000 255 0 255
-0.2630700 1.5727400 -11.9619000 255 0 255
-0.2690440 1.9938300 -12.4003000 255 0 255
-0.2703470 1.9902100 -12.3692000 255 0 255
-0.2843250 1.9142800 -12.8442000 255 0 255
-0.2845950 1.8887000 -12.8795000 255 0 255
-0.2851270 1.8739700 -12.8931000 255 0 255
-0.2865290 1.8672300 -12.8629000 255 0 255
-0.2871040 1.8580700 -12.8742000 255 0 255
-0.2613350 1.8830800 -12.0512000 255 0 255
-0.2631090 1.5500300 -11.9699000 255 0 255
-0.2647150 1.5348200 -12.0130000 255 0 255
-0.2644420 1.5104800 -12.0141000 255 0 255
-0.2644830 1.4876200 -12.0221000 255 0 255
-0.2648390 1.4661900 -12.0373000 255 0 255
-0.2626860 1.4331500 -11.9960000 255 0 255
-0.2795670 1.9746400 -12.8363000 255 0 255
-0.2681070 1.9813700 -12.4451000 255 0 255
-0.2820950 1.9192300 -12.8849000 255 0 255
-0.2579830 1.9240400 -12.0849000 255 0 255
-0.2596660 1.9031900 -12.0684000 255 0 255
-0.2628820 1.4110100 -12.0076000 255 0 255
-0.2635500 1.3909300 -12.0298000 255 0 255
-0.2546150 1.9660400 -12.1177000 255 0 255
-0.2683730 1.9158700 -12.5351000 255 0 255
-0.2562810 1.9458500 -12.1007000 255 0 255
-0.2589280 1.3894600 -12.0512000 255 0 255
-0.2594480 1.3646400 -12.0708000 255 0 255
-0.2531180 1.9783700 -12.1410000 255 0 255
-0.2674690 1.9009300 -12.5827000 255 0 255
-0.2592430 1.3371600 -12.0758000 255 0 255
-0.2501140 2.0033400 -12.1875000 255 0 255
-0.2515120 1.9958000 -12.1602000 255 0 255
-0.2660920 1.9065500 -12.6130000 255 0 255
-0.2654080 1.8811200 -12.6700000 255 0 255
-0.2487960 2.0069400 -12.2180000 255 0 255
-0.2632270 1.9026700 -12.7007000 255 0 255
-0.2638820 1.8929900 -12.6952000 255 0 255
-0.2465140 1.8893700 -12.0520000 255 0 255
-0.2453310 1.8596100 -12.0317000 255 0 255
-0.2437030 1.8274000 -12.0010000 255 0 255
-0.2474740 2.0105500 -12.2486000 255 0 255
-0.2464740 1.9982600 -12.2925000 255 0 255
-0.2616880 1.9056900 -12.7369000 255 0 255
-0.2624770 1.8993300 -12.7252000 255 0 255
-0.2614650 1.8876500 -12.7710000 255 0 255
-0.2425330 1.7979400 -11.9809000 255 0 255
-0.2424380 1.7746200 -11.9862000 255 0 255
-0.2419860 1.7492900 -11.9830000 255 0 255
-0.2415200 1.7239100 -11.9795000 255 0 255
-0.2405370 1.6957300 -11.9637000 255 0 255
-0.2455070 1.9838900 -12.3383000 255 0 255
-0.2606430 1.8935600 -12.7905000 255 0 255
-0.2607520 1.8618800 -12.8294000 255 0 255
-0.2390380 1.6648300 -11.9358000 255 0 255
-0.2386780 1.6401800 -11.9347000 255 0 255
-0.2382610 1.6152200 -11.9323000 255 0 255
-0.2382830 1.5925900 -11.9402000 255 0 255
-0.2380860 1.5688000 -11.9430000 255 0 255
-0.2378590 1.5448400 -11.9450000 255 0 255
-0.2442640 1.9828200 -12.3733000 255 0 255
-0.2583260 1.8751300 -12.8920000 255 0 255
-0.2579360 1.8732300 -12.8916000 255 0 255
-0.2595740 1.8570100 -12.8697000 255 0 255
-0.2386470 1.5260400 -11.9712000 255 0 255
-0.2396170 1.5080500 -12.0016000 255 0 255
-0.2395830 1.4849200 -12.0083000 255 0 255
-0.2396080 1.4620600 -12.0163000 255 0 255
-0.2390400 1.4362900 -12.0103000 255 0 255
-0.2387690 1.4119700 -12.0113000 255 0 255
-0.2390900 1.3904800 -12.0265000 255 0 255
-0.2441780 1.3026200 -12.1306000 255 0 255
-0.2530620 1.9893000 -12.8591000 255 0 255
-0.2548820 1.9665200 -12.8487000 255 0 255
-0.2551100 1.9451400 -12.8639000 255 0 255
-0.2418430 1.9810800 -12.4165000 255 0 255
-0.2418980 1.9739400 -12.4493000 255 0 255
-0.2431510 1.9750400 -12.4141000 255 0 255
-0.2556680 1.9118300 -12.8903000 255 0 255
-0.2320190 1.9247700 -12.0824000 255 0 255
-0.2336120 1.9078800 -12.0627000 255 0 255
-0.2412290 1.9429300 -12.5101000 255 0 255
-0.2294170 1.9664300 -12.1165000 255 0 255
-0.2303530 1.9457100 -12.0988000 255 0 255
-0.2272290 1.9763300 -12.1407000 255 0 255
-0.2287110 1.9654200 -12.1162000 255 0 255
-0.2403730 1.9207700 -12.5637000 255 0 255
-0.2306750 1.3890800 -12.0467000 255 0 255
-0.2312710 1.3647200 -12.0688000 255 0 255
-0.2257470 1.9871800 -12.1652000 255 0 255
-0.2388340 1.9332400 -12.5881000 255 0 255
-0.2389520 1.8595600 -12.6865000 255 0 255
-0.2219360 1.8887400 -12.0486000 255 0 255
-0.2290020 1.3295400 -12.0305000 255 0 255
-0.2230370 1.9943400 -12.2263000 255 0 255
-0.2243940 1.9907600 -12.1957000 255 0 255
-0.2370640 1.8895000 -12.6961000 255 0 255
-0.2209490 1.8598700 -12.0319000 255 0 255
-0.2193990 1.8276600 -12.0012000 255 0 255
-0.2182810 1.7981900 -11.9811000 255 0 255
-0.2182190 1.7751200 -11.9874000 255 0 255
-0.2214910 2.0085200 -12.2483000 255 0 255
-0.2354290 1.8995600 -12.7408000 255 0 255
-0.2355490 1.8999900 -12.7225000 255 0 255
-0.2344750 1.8869200 -12.7695000 255 0 255
-0.2179040 1.7505400 -11.9874000 255 0 255
-0.2176040 1.7260500 -11.9877000 255 0 255
-0.2166320 1.6976700 -11.9712000 255 0 255
-0.2156630 1.6693900 -11.9548000 255 0 255
-0.2152530 1.6443700 -11.9523000 255 0 255
-0.2221750 1.3573300 -12.0441000 255 0 255
-0.2189790 2.0031600 -12.3203000 255 0 255
-0.2202660 2.0041900 -12.2856000 255 0 255
-0.2341310 1.8922600 -12.7889000 255 0 255
-0.2331450 1.8738900 -12.8499000 255 0 255
-0.2336290 1.8611500 -12.8279000 255 0 255
-0.2144670 1.6172500 -11.9404000 255 0 255
-0.2142270 1.5932300 -11.9422000 255 0 255
-0.2144030 1.5715000 -11.9544000 255 0 255
-0.2142280 1.5478100 -11.9578000 255 0 255
-0.2134980 1.5211200 -11.9472000 255 0 255
-0.2141880 1.5020600 -11.9724000 255 0 255
-0.2143350 1.4800200 -11.9839000 255 0 255
-0.2300710 1.9592500 -12.8593000 255 0 255
-0.2178000 1.9954700 -12.3607000 255 0 255
-0.2321680 1.9320100 -12.8575000 255 0 255
-0.2310840 1.8922100 -12.8693000 255 0 255
-0.2307450 1.8725000 -12.8901000 255 0 255
-0.2323840 1.8562800 -12.8682000 255 0 255
-0.2141480 1.4562000 -11.9870000 255 0 255
-0.2145470 1.4353900 -12.0049000 255 0 255
-0.2147790 1.4136600 -12.0186000 255 0 255
-0.2150120 1.3918700 -12.0323000 255 0 255
-0.2175990 1.3345100 -12.1112000 255 0 255
-0.2187830 1.3063200 -12.1170000 255 0 255
-0.2281620 1.9835600 -12.8669000 255 0 255
-0.2154350 2.0042600 -12.3881000 255 0 255
-0.2165010 1.9944200 -12.3957000 255 0 255
-0.2154220 1.9799500 -12.4422000 255 0 255
-0.2075760 1.9135500 -12.0562000 255 0 255
-0.2145570 1.9520000 -12.5004000 255 0 255
-0.2044420 1.9447500 -12.0976000 255 0 255
-0.2060430 1.9269300 -12.0787000 255 0 255
-0.2013300 1.9744600 -12.1402000 255 0 255
-0.2136430 1.9262000 -12.5570000 255 0 255
-0.2028070 1.9648000 -12.1147000 255 0 255
-0.1999350 1.9785500 -12.1702000 255 0 255
-0.2121940 1.9325200 -12.5866000 255 0 255
-0.2110280 1.9210500 -12.6315000 255 0 255
-0.1984400 1.9667500 -12.1173000 255 0 255
-0.1972410 1.8872300 -12.0418000 255 0 255
-0.2017470 1.3858900 -12.0269000 255 0 255
-0.2013630 1.3578600 -12.0283000 255 0 255
-0.1972210 1.9807100 -12.2355000 255 0 255
-0.1986020 1.9781300 -12.2040000 255 0 255
-0.2099650 1.9026000 -12.6827000 255 0 255
-0.1958460 1.8554200 -12.0131000 255 0 255
-0.1950950 1.8279100 -12.0014000 255 0 255
-0.1943460 1.8004800 -11.9898000 255 0 255
-0.1939840 1.7755600 -11.9884000 255 0 255
-0.1930910 1.7473100 -11.9729000 255 0 255
-0.1951350 1.6405000 -11.9338000 255 0 255
-0.1956730 1.9945800 -12.2577000 255 0 255
-0.2086200 1.9013400 -12.7192000 255 0 255
-0.2074860 1.8861900 -12.7680000 255 0 255
-0.1928990 1.7235100 -11.9760000 255 0 255
-0.1920840 1.6958600 -11.9625000 255 0 255
-0.1914150 1.6691700 -11.9529000 255 0 255
-0.1910550 1.6444000 -11.9516000 255 0 255
-0.1903890 1.6178000 -11.9420000 255 0 255
-0.1928840 2.0004700 -12.3205000 255 0 255
-0.1942330 2.0008400 -12.2863000 255 0 255
-0.1901520 1.9935800 -12.1971000 255 0 255
-0.2069720 1.9296700 -12.8584000 255 0 255
-0.2076200 1.8909600 -12.7873000 255 0 255
-0.2062680 1.8817700 -12.8378000 255 0 255
-0.2065070 1.8604200 -12.8264000 255 0 255
-0.1904500 1.5955700 -11.9518000 255 0 255
-0.1903720 1.5724800 -11.9579000 255 0 255
-0.1899790 1.5475500 -11.9556000 255 0 255
-0.1893840 1.5214700 -11.9479000 255 0 255
-0.1896090 1.5000900 -11.9621000 255 0 255
-0.1893410 1.4758800 -11.9632000 255 0 255
-0.1897230 1.4552900 -11.9817000 255 0 255
-0.1902010 1.4351500 -12.0027000 255 0 255
-0.1937890 1.3059600 -12.1159000 255 0 255
-0.2031040 1.9796900 -12.8709000 255 0 255
-0.2049650 1.9559300 -12.8623000 255 0 255
-0.1915580 1.9981000 -12.3565000 255 0 255
-0.2043470 1.8945700 -12.8635000 255 0 255
-0.2033430 1.8857900 -12.8761000 255 0 255
-0.2051940 1.8555500 -12.8667000 255 0 255
-0.1849170 1.8722100 -12.0208000 255 0 255
-0.1900210 1.4113500 -12.0061000 255 0 255
-0.1902240 1.3895900 -12.0198000 255 0 255
-0.1902530 1.9937100 -12.3943000 255 0 255
-0.1890800 1.9792400 -12.4407000 255 0 255
-0.1816140 1.9164900 -12.0519000 255 0 255
-0.1832360 1.8965900 -12.0346000 255 0 255
-0.1879080 1.9639800 -12.4881000 255 0 255
-0.1785300 1.9437500 -12.0964000 255 0 255
-0.1800880 1.9288600 -12.0751000 255 0 255
-0.1870700 1.9227500 -12.5579000 255 0 255
-0.1769740 1.9584000 -12.1178000 255 0 255
-0.1739090 1.9838000 -12.1639000 255 0 255
-0.1753390 1.9796800 -12.1340000 255 0 255
-0.1843910 1.9134600 -12.6359000 255 0 255
-0.1857790 1.9146900 -12.5997000 255 0 255
-0.1725750 1.9794200 -12.2009000 255 0 255
-0.1830600 1.9074000 -12.6764000 255 0 255
-0.1707910 1.8281700 -12.0016000 255 0 255
-0.1703340 1.8025200 -11.9974000 255 0 255
-0.1696920 1.7756300 -11.9879000 255 0 255
-0.1684980 1.7450900 -11.9626000 255 0 255
-0.1680820 1.7198400 -11.9595000 255 0 255
-0.1687840 1.6103900 -11.9298000 255 0 255
-0.1732080 1.4103200 -12.0036000 255 0 255
-0.1729150 1.3827200 -12.0071000 255 0 255
-0.1684010 2.0144500 -12.1375000 255 0 255
-0.1696380 1.9925500 -12.2574000 255 0 255
-0.1711850 1.9793000 -12.2346000 255 0 255
-0.1801520 1.9132000 -12.7423000 255 0 255
-0.1816520 1.9068400 -12.7123000 255 0 255
-0.1825510 1.8987900 -12.7355000 255 0 255
-0.1811100 1.8896600 -12.7857000 255 0 255
-0.1675680 1.6939800 -11.9536000 255 0 255
-0.1668350 1.6667100 -11.9413000 255 0 255
-0.1665660 1.6425100 -11.9423000 255 0 255
-0.1665670 1.6200400 -11.9510000 255 0 255
-0.1663960 1.5964400 -11.9548000 255 0 255
-0.1660310 1.5716200 -11.9530000 255 0 255
-0.1706550 1.3468000 -11.9645000 255 0 255
-0.1798070 1.9531900 -12.8640000 255 0 255
-0.1681990 1.9961500 -12.2882000 255 0 255
-0.1817350 1.9279200 -12.8583000 255 0 255
-0.1795910 1.8835300 -12.8327000 255 0 255
-0.1793850 1.8596900 -12.8249000 255 0 255
-0.1655130 1.5458600 -11.9469000 255 0 255
-0.1651670 1.5212000 -11.9457000 255 0 255
-0.1649910 1.4975800 -11.9493000 255 0 255
-0.1647290 1.4734300 -11.9505000 255 0 255
-0.1650340 1.4526500 -11.9679000 255 0 255
-0.1653750 1.4320200 -11.9864000 255 0 255
-0.1652300 1.4084800 -11.9909000 255 0 255
-0.1676430 1.3343200 -12.1072000 255 0 255
-0.1684900 1.3096500 -12.1024000 255 0 255
-0.1780330 1.9755700 -12.8754000 255 0 255
-0.1653520 1.9993900 -12.3533000 255 0 255
-0.1667560 1.9997600 -12.3190000 255 0 255
-0.1618070 1.9948700 -12.2006000 255 0 255
-0.1776970 1.8941800 -12.8608000 255 0 255
-0.1780050 1.8548100 -12.8652000 255 0 255
-0.1589530 1.8734300 -12.0178000 255 0 255
-0.1606370 1.8464500 -12.0060000 255 0 255
-0.1622880 1.4319000 -11.9665000 255 0 255
-0.1623880 2.0119900 -12.4111000 255 0 255
-0.1638290 2.0096800 -12.3788000 255 0 255
-0.1763660 1.8710300 -12.8870000 255 0 255
-0.1557480 1.9117900 -12.0536000 255 0 255
-0.1573230 1.8953400 -12.0336000 255 0 255
-0.1611490 1.9942400 -12.4604000 255 0 255
-0.1541760 1.9279100 -12.0739000 255 0 255
-0.1601540 1.9514900 -12.5313000 255 0 255
-0.1510010 1.9637100 -12.1116000 255 0 255
-0.1525660 1.9482100 -12.0908000 255 0 255
-0.1480020 1.9798000 -12.1652000 255 0 255
-0.1495010 1.9719000 -12.1382000 255 0 255
-0.1576440 1.9127400 -12.6344000 255 0 255
-0.1590860 1.9139700 -12.5982000 255 0 255
-0.1484250 1.8877400 -12.0422000 255 0 255
-0.1461420 1.8258500 -11.9913000 255 0 255
-0.1464350 1.9952700 -12.1860000 255 0 255
-0.1562630 1.9046100 -12.6767000 255 0 255
-0.1455470 1.7991100 -11.9824000 255 0 255
-0.1448250 1.7714900 -11.9697000 255 0 255
-0.1436150 1.7404000 -11.9420000 255 0 255
-0.1436210 1.7181400 -11.9513000 255 0 255
-0.1431930 1.6927700 -11.9475000 255 0 255
-0.1434540 2.0077500 -12.2429000 255 0 255
-0.1449800 1.9975400 -12.2177000 255 0 255
-0.1564540 1.9268900 -12.8567000 255 0 255
-0.1532510 1.9124800 -12.7408000 255 0 255
-0.1547430 1.9102600 -12.7072000 255 0 255
-0.1546000 1.8883700 -12.7840000 255 0 255
-0.1426760 1.6668100 -11.9408000 255 0 255
-0.1424220 1.6427000 -11.9422000 255 0 255
-0.1423920 1.6201400 -11.9505000 255 0 255
-0.1407290 1.6104700 -11.9276000 255 0 255
-0.1421160 1.5958700 -11.9513000 255 0 255
-0.1416210 1.5701300 -11.9453000 255 0 255
-0.1412700 1.5453700 -11.9437000 255 0 255
-0.1410180 1.5213000 -11.9452000 255 0 255
-0.1446310 1.4078300 -11.9878000 255 0 255
-0.1452780 1.3845400 -12.0146000 255 0 255
-0.1529590 1.9708200 -12.8812000 255 0 255
-0.1547670 1.9475900 -12.8714000 255 0 255
-0.1421090 1.9954500 -12.2867000 255 0 255
-0.1530150 1.8810000 -12.8325000 255 0 255
-0.1522640 1.8589500 -12.8234000 255 0 255
-0.1362750 1.8244800 -11.9882000 255 0 255
-0.1408490 1.4977600 -11.9492000 255 0 255
-0.1409510 1.4759600 -11.9615000 255 0 255
-0.1410920 1.4543600 -11.9751000 255 0 255
-0.1412340 1.4327100 -11.9887000 255 0 255
-0.1426660 1.3343400 -12.1048000 255 0 255
-0.1432560 1.3133400 -12.0889000 255 0 255
-0.1391640 2.0000200 -12.3508000 255 0 255
-0.1372030 2.0117300 -12.1332000 255 0 255
-0.1407300 1.9860800 -12.3284000 255 0 255
-0.1489930 1.8913100 -12.8669000 255 0 255
-0.1511530 1.8883000 -12.8644000 255 0 255
-0.1508170 1.8540800 -12.8637000 255 0 255
-0.1346230 1.8515100 -12.0001000 255 0 255
-0.1402170 1.3950600 -12.0789000 255 0 255
-0.1414060 1.3652400 -12.0904000 255 0 255
-0.1375330 2.0222700 -12.3662000 255 0 255
-0.1453130 1.9721300 -12.8673000 255 0 255
-0.1367080 2.0042100 -12.4174000 255 0 255
-0.1332520 2.0212000 -12.1874000 255 0 255
-0.1384680 2.0005000 -12.3834000 255 0 255
-0.1470580 1.9422300 -12.8579000 255 0 255
-0.1313600 1.9011300 -12.0271000 255 0 255
-0.1348080 1.9935300 -12.4590000 255 0 255
-0.1363240 1.9878900 -12.4293000 255 0 255
-0.1282300 1.9321300 -12.0686000 255 0 255
-0.1297940 1.9167600 -12.0477000 255 0 255
-0.1335020 1.9688900 -12.5145000 255 0 255
-0.1250900 1.9647400 -12.1088000 255 0 255
-0.1266560 1.9491600 -12.0881000 255 0 255
-0.1321830 1.9440100 -12.5705000 255 0 255
-0.1235350 1.9786700 -12.1308000 255 0 255
-0.1230460 1.8800800 -12.0106000 255 0 255
-0.1222400 1.8513300 -11.9940000 255 0 255
-0.1213610 1.8220800 -11.9750000 255 0 255
-0.1210200 1.7971900 -11.9736000 255 0 255
-0.1204070 2.0094100 -12.1725000 255 0 255
-0.1220190 1.9857100 -12.1584000 255 0 255
-0.1308520 1.9188900 -12.6270000 255 0 255
-0.1295080 1.8935200 -12.6842000 255 0 255
-0.1203390 1.7696300 -11.9610000 255 0 255
-0.1198910 1.7439500 -11.9561000 255 0 255
-0.1194550 1.7184000 -11.9516000 255 0 255
-0.1188930 1.6919100 -11.9428000 255 0 255
-0.1185110 1.6668300 -11.9400000 255 0 255
-0.1182630 1.6427600 -11.9416000 255 0 255
-0.1182270 1.6202800 -11.9503000 255 0 255
-0.1174230 2.0123300 -12.2371000 255 0 255
-0.1189040 2.0133400 -12.2027000 255 0 255
-0.1277280 1.9113400 -12.7549000 255 0 255
-0.1263510 1.9117500 -12.7393000 255 0 255
-0.1279130 1.9053900 -12.7093000 255 0 255
-0.1179550 1.5960300 -11.9511000 255 0 255
-0.1174660 1.5702000 -11.9447000 255 0 255
-0.1170260 1.5447600 -11.9399000 255 0 255
-0.1169610 1.5220200 -11.9475000 255 0 255
-0.1170190 1.5001200 -11.9593000 255 0 255
-0.1170470 1.4779700 -11.9701000 255 0 255
-0.1172850 1.4572300 -11.9879000 255 0 255
-0.1179050 1.4390200 -12.0185000 255 0 255
-0.1160180 1.9947500 -12.2853000 255 0 255
-0.1248940 1.9001100 -12.7852000 255 0 255
-0.1264850 1.8748100 -12.8364000 255 0 255
-0.1163570 1.3675200 -12.0810000 255 0 255
-0.1171310 1.3696200 -12.0210000 255 0 255
-0.1177400 1.3335900 -12.1048000 255 0 255
-0.1185670 1.3089300 -12.1000000 255 0 255
-0.1129900 1.9993100 -12.3493000 255 0 255
-0.1145630 1.9853700 -12.3269000 255 0 255
-0.1219100 1.8835900 -12.8716000 255 0 255
-0.1246440 1.8778000 -12.8733000 255 0 255
-0.1236290 1.8533500 -12.8622000 255 0 255
-0.1111890 1.6407400 -11.9273000 255 0 255
-0.1129990 1.4449700 -12.0017000 255 0 255
-0.1146700 1.4064300 -12.0412000 255 0 255
-0.1182720 1.9851400 -12.8535000 255 0 255
-0.1113800 2.0215600 -12.3648000 255 0 255
-0.1108390 2.0157200 -12.4018000 255 0 255
-0.1127220 2.0062000 -12.3742000 255 0 255
-0.1201780 1.9172100 -12.8780000 255 0 255
-0.1054610 1.9004900 -12.0256000 255 0 255
-0.1166900 1.9929800 -12.8825000 255 0 255
-0.1047450 2.0214900 -12.1865000 255 0 255
-0.1100060 1.9891900 -12.4262000 255 0 255
-0.1056650 1.9999000 -12.1138000 255 0 255
-0.1023200 1.9346200 -12.0646000 255 0 255
-0.1038890 1.9178700 -12.0448000 255 0 255
-0.1084540 1.9219500 -12.5825000 255 0 255
-0.1007510 1.9516500 -12.0841000 255 0 255
-0.0993110 1.8856200 -12.0320000 255 0 255
-0.1040060 1.9523500 -12.5962000 255 0 255
-0.1055620 1.9501000 -12.5632000 255 0 255
-0.0976350 1.9781600 -12.1292000 255 0 255
-0.0991910 1.9659100 -12.1058000 255 0 255
-0.0983480 1.8550600 -12.0083000 255 0 255
-0.0975880 1.8263700 -11.9918000 255 0 255
-0.0967320 1.7969400 -11.9718000 255 0 255
-0.0958790 1.7676300 -11.9518000 255 0 255
-0.0945070 2.0088600 -12.1709000 255 0 255
-0.0960890 1.9866700 -12.1556000 255 0 255
-0.1027220 1.8719900 -12.7006000 255 0 255
-0.0950890 1.7389400 -11.9341000 255 0 255
-0.0947660 1.7142600 -11.9330000 255 0 255
-0.0945590 1.6905600 -11.9361000 255 0 255
-0.0943330 1.6666900 -11.9385000 255 0 255
-0.0943290 1.6446300 -11.9489000 255 0 255
-0.0940690 1.6204600 -11.9501000 255 0 255
-0.0935390 1.5941300 -11.9416000 255 0 255
-0.0929430 2.0241600 -12.1919000 255 0 255
-0.1013060 1.9100500 -12.7533000 255 0 255
-0.1010710 1.8963700 -12.7150000 255 0 255
-0.0931780 1.5691900 -11.9391000 255 0 255
-0.0928560 1.5445700 -11.9380000 255 0 255
-0.0928100 1.5221000 -11.9469000 255 0 255
-0.0929050 1.5006800 -11.9609000 255 0 255
-0.0929880 1.4791100 -11.9745000 255 0 255
-0.0930710 1.4574900 -11.9881000 255 0 255
-0.0914220 2.0182300 -12.2302000 255 0 255
-0.0899160 2.0006800 -12.2783000 255 0 255
-0.0994550 1.9100400 -12.7387000 255 0 255
-0.0979060 1.8993800 -12.7837000 255 0 255
-0.0889850 1.4355200 -11.9802000 255 0 255
-0.0891100 1.4215900 -11.9918000 255 0 255
-0.0908760 1.3799000 -12.0082000 255 0 255
-0.0914900 1.3671600 -12.0798000 255 0 255
-0.0927910 1.3332300 -12.1036000 255 0 255
-0.0938190 1.3045100 -12.1111000 255 0 255
-0.0883700 1.9996500 -12.3130000 255 0 255
-0.0947490 1.8898500 -12.8639000 255 0 255
-0.0963860 1.8736700 -12.8421000 255 0 255
-0.0882400 1.4471600 -11.9926000 255 0 255
-0.0851420 2.0186000 -12.3957000 255 0 255
-0.0870350 2.0109000 -12.3662000 255 0 255
-0.0913900 1.9637900 -12.8704000 255 0 255
-0.0868120 2.0023300 -12.3448000 255 0 255
-0.0930840 1.9185700 -12.8746000 255 0 255
-0.0897540 1.9840200 -12.8884000 255 0 255
-0.0779970 1.9157000 -12.0446000 255 0 255
-0.0795660 1.8946200 -12.0282000 255 0 255
-0.0762410 2.0217700 -12.1856000 255 0 255
-0.0744990 1.9953800 -12.1065000 255 0 255
-0.0823350 1.9206700 -12.5809000 255 0 255
-0.0748670 1.9483800 -12.0847000 255 0 255
-0.0764320 1.9310400 -12.0654000 255 0 255
-0.0744390 1.8811300 -12.0132000 255 0 255
-0.0738470 1.8535900 -12.0015000 255 0 255
-0.0789690 1.9832500 -12.5328000 255 0 255
-0.0773870 1.9584400 -12.5889000 255 0 255
-0.0717370 1.9796500 -12.1260000 255 0 255
-0.0733020 1.9672500 -12.1028000 255 0 255
-0.0732570 1.8261100 -11.9899000 255 0 255
-0.0724180 1.7963500 -11.9685000 255 0 255
-0.0717070 1.7678900 -11.9521000 255 0 255
-0.0708210 1.7378900 -11.9287000 255 0 255
-0.0701720 1.9930100 -12.1485000 255 0 255
-0.0701160 1.7096500 -11.9125000 255 0 255
-0.0700110 1.6869600 -11.9197000 255 0 255
-0.0700300 1.6653500 -11.9318000 255 0 255
-0.0699430 1.6427600 -11.9397000 255 0 255
-0.0696440 1.6182600 -11.9394000 255 0 255
-0.0691690 1.5922300 -11.9321000 255 0 255
-0.0688010 1.5671600 -11.9289000 255 0 255
-0.0687630 1.5449600 -11.9389000 255 0 255
-0.0686700 1.5222300 -11.9466000 255 0 255
-0.0670330 2.0119500 -12.1998000 255 0 255
-0.0686020 1.9997800 -12.1763000 255 0 255
-0.0748610 1.9117800 -12.7483000 255 0 255
-0.0741770 1.8956400 -12.7135000 255 0 255
-0.0758020 1.8712700 -12.6991000 255 0 255
-0.0684330 1.4982800 -11.9486000 255 0 255
-0.0688020 1.4793700 -11.9747000 255 0 255
-0.0690680 1.4595000 -11.9968000 255 0 255
-0.0688290 1.3041400 -12.1100000 255 0 255
-0.0654490 2.0109300 -12.2342000 255 0 255
-0.0638510 2.0033000 -12.2742000 255 0 255
-0.0725520 1.9093200 -12.7372000 255 0 255
-0.0709180 1.8986500 -12.7822000 255 0 255
-0.0635430 1.4488400 -11.9850000 255 0 255
-0.0641400 1.4289300 -11.9667000 255 0 255
-0.0647670 1.3786300 -12.0067000 255 0 255
-0.0678420 1.3328700 -12.1025000 255 0 255
-0.0622540 2.0022700 -12.3088000 255 0 255
-0.0676280 1.8891200 -12.8624000 255 0 255
-0.0692700 1.8799400 -12.8345000 255 0 255
-0.0609600 1.4609800 -11.9634000 255 0 255
-0.0595220 2.0132100 -12.3987000 255 0 255
-0.0590400 2.0002000 -12.3786000 255 0 255
-0.0643890 1.9527000 -12.8782000 255 0 255
-0.0660180 1.9345000 -12.8583000 255 0 255
-0.0627810 1.9860400 -12.8845000 255 0 255
-0.0574560 2.0158300 -12.3997000 255 0 255
-0.0576590 2.0076600 -12.4429000 255 0 255
-0.0558010 1.9981100 -12.4489000 255 0 255
-0.0521000 1.9152200 -12.0430000 255 0 255
-0.0536520 1.8939200 -12.0268000 255 0 255
-0.0560300 1.9550600 -12.5397000 255 0 255
-0.0489700 1.9461000 -12.0846000 255 0 255
-0.0505230 1.9262300 -12.0673000 255 0 255
-0.0499730 1.8799800 -12.0077000 255 0 255
-0.0493000 1.8512500 -11.9912000 255 0 255
-0.0485470 1.8217600 -11.9712000 255 0 255
-0.0526040 2.0228300 -12.4969000 255 0 255
-0.0478830 2.0231500 -12.1894000 255 0 255
-0.0474170 1.9656100 -12.1021000 255 0 255
-0.0478790 1.7932400 -11.9547000 255 0 255
-0.0470520 1.7631600 -11.9314000 255 0 255
-0.0466350 1.7374000 -11.9258000 255 0 255
-0.0458080 1.7074900 -11.9023000 255 0 255
-0.0457050 1.6849800 -11.9102000 255 0 255
-0.0456930 1.6633400 -11.9221000 255 0 255
-0.0442820 1.9946300 -12.1452000 255 0 255
-0.0458600 1.9831200 -12.1212000 255 0 255
-0.0506790 1.9167300 -12.6226000 255 0 255
-0.0489440 1.8913500 -12.6797000 255 0 255
-0.0455670 1.6405400 -11.9291000 255 0 255
-0.0451410 1.6147800 -11.9230000 255 0 255
-0.0446890 1.5888000 -11.9157000 255 0 255
-0.0446180 1.5665100 -11.9250000 255 0 255
-0.0447370 1.5459900 -11.9426000 255 0 255
-0.0446650 1.5236100 -11.9520000 255 0 255
-0.0442970 1.4984400 -11.9484000 255 0 255
-0.0440220 1.4741500 -11.9488000 255 0 255
-0.0443550 1.4554000 -11.9760000 255 0 255
-0.0500640 1.9922000 -12.8801000 255 0 255
-0.0411050 2.0132200 -12.1968000 255 0 255
-0.0427090 2.0078700 -12.1677000 255 0 255
-0.0473090 1.9032200 -12.7048000 255 0 255
-0.0428950 1.3325100 -12.1013000 255 0 255
-0.0438410 1.3037800 -12.1088000 255 0 255
-0.0378920 2.0257300 -12.2536000 255 0 255
-0.0395170 2.0234200 -12.2219000 255 0 255
-0.0456530 1.9095800 -12.7349000 255 0 255
-0.0439310 1.8979300 -12.7807000 255 0 255
-0.0390310 1.4464400 -11.9902000 255 0 255
-0.0395770 1.4285800 -11.9655000 255 0 255
-0.0417570 1.3664400 -12.0775000 255 0 255
-0.0361730 2.0082000 -12.3019000 255 0 255
-0.0421460 1.8722100 -12.8391000 255 0 255
-0.0345220 2.0077100 -12.3362000 255 0 255
-0.0338950 1.9974500 -12.4131000 255 0 255
-0.0327930 1.9928200 -12.3827000 255 0 255
-0.0388700 1.9045700 -12.8827000 255 0 255
-0.0404250 1.8673700 -12.8795000 255 0 255
-0.0357500 1.9715500 -12.8953000 255 0 255
-0.0310890 1.9850600 -12.4235000 255 0 255
-0.0372770 1.9311900 -12.8952000 255 0 255
-0.0277350 1.8928600 -12.0256000 255 0 255
-0.0292760 1.8725000 -12.0087000 255 0 255
-0.0294110 1.9839900 -12.4588000 255 0 255
-0.0276890 1.9761700 -12.5000000 255 0 255
-0.0246110 1.9252600 -12.0661000 255 0 255
-0.0262050 1.9148000 -12.0413000 255 0 255
-0.0255060 1.8784900 -12.0009000 255 0 255
-0.0246580 1.8471900 -11.9739000 255 0 255
-0.0242490 1.8211700 -11.9679000 255 0 255
-0.0236970 1.7935000 -11.9550000 255 0 255
-0.0260340 1.9818300 -12.5299000 255 0 255
-0.0215250 1.9636100 -12.1017000 255 0 255
-0.0230750 1.9456800 -12.0829000 255 0 255
-0.0232900 1.7675800 -11.9490000 255 0 255
-0.0225970 1.7384100 -11.9292000 255 0 255
-0.0219770 1.7101700 -11.9129000 255 0 255
-0.0217470 1.6863800 -11.9154000 255 0 255
-0.0215270 1.6627000 -11.9184000 255 0 255
-0.0212250 1.6381100 -11.9174000 255 0 255
-0.0208630 1.6128700 -11.9135000 255 0 255
-0.0249180 1.9866500 -12.8875000 255 0 255
-0.0241960 1.9570100 -12.5859000 255 0 255
-0.0199880 1.9834100 -12.1190000 255 0 255
-0.0221530 1.9010000 -12.6693000 255 0 255
-0.0204310 1.5869100 -11.9062000 255 0 255
-0.0203700 1.5649500 -11.9169000 255 0 255
-0.0204490 1.5444400 -11.9345000 255 0 255
-0.0203870 1.5223800 -11.9453000 255 0 255
-0.0200550 1.4974700 -11.9428000 255 0 255
-0.0197640 1.4730000 -11.9423000 255 0 255
-0.0152470 2.0227500 -12.1870000 255 0 255
-0.0168280 2.0096300 -12.1643000 255 0 255
-0.0204930 1.9107900 -12.6962000 255 0 255
-0.0179480 1.3321400 -12.1001000 255 0 255
-0.0188530 1.3034200 -12.1076000 255 0 255
-0.0120020 2.0382000 -12.2413000 255 0 255
-0.0136800 2.0379400 -12.2080000 255 0 255
-0.0127820 2.0324900 -12.1092000 255 0 255
-0.0126400 1.9991500 -12.1131000 255 0 255
-0.0187640 1.9102400 -12.7322000 255 0 255
-0.0169910 1.9041400 -12.7731000 255 0 255
-0.0145020 1.4435300 -11.9971000 255 0 255
-0.0163770 1.3814200 -12.1097000 255 0 255
-0.0169690 1.3634300 -12.0845000 255 0 255
-0.0145710 1.3484900 -11.9937000 255 0 255
-0.0103100 2.0372400 -12.2758000 255 0 255
-0.0152420 1.9028800 -12.8100000 255 0 255
-0.0125470 1.3733300 -12.0061000 255 0 255
-0.0085070 2.0230600 -12.3214000 255 0 255
-0.0066120 1.9987900 -12.3757000 255 0 255
-0.0102040 1.9325400 -12.8918000 255 0 255
-0.0117180 1.8996600 -12.8849000 255 0 255
-0.0133870 1.8876600 -12.8594000 255 0 255
-0.0087920 1.9777100 -12.8876000 255 0 255
-0.0061630 1.9964100 -12.4495000 255 0 255
-0.0047970 1.9863600 -12.4204000 255 0 255
-0.0020500 1.9111400 -12.0319000 255 0 255
-0.0018720 1.8982800 -12.0194000 255 0 255
-0.0033840 1.8762700 -12.0037000 255 0 255
-0.0013990 1.9922900 -12.4842000 255 0 255
-0.0030720 1.9859600 -12.4551000 255 0 255
0.0012500 1.9301200 -12.0602000 255 0 255
-0.0002620 1.9085400 -12.0443000 255 0 255
-0.0012020 1.8787600 -12.0011000 255 0 255
-0.0003970 1.8471100 -11.9727000 255 0 255
0.0001120 1.8195100 -11.9602000 255 0 255
0.0006120 1.7920900 -11.9483000 255 0 255
0.0011280 1.7645200 -11.9353000 255 0 255
0.0015160 1.7386700 -11.9294000 255 0 255
0.0004330 1.9811200 -12.5284000 255 0 255
0.0043810 1.9610000 -12.1018000 255 0 255
0.0028630 1.9404000 -12.0851000 255 0 255
0.0019570 1.7121700 -11.9205000 255 0 255
0.0023520 1.6863000 -11.9141000 255 0 255
0.0027160 1.6608500 -11.9094000 255 0 255
0.0029650 1.6368600 -11.9110000 255 0 255
0.0033480 1.6112300 -11.9052000 255 0 255
0.0034840 1.5886400 -11.9130000 255 0 255
0.0036230 1.5659900 -11.9207000 255 0 255
0.0037220 1.5438000 -11.9306000 255 0 255
0.0003270 1.9843200 -12.8885000 255 0 255
0.0023980 1.9562900 -12.5845000 255 0 255
0.0058950 1.9818800 -12.1182000 255 0 255
0.0043830 1.9312300 -12.6411000 255 0 255
0.0038880 1.5207800 -11.9368000 255 0 255
0.0041880 1.4961600 -11.9356000 255 0 255
0.0043140 1.4735800 -11.9440000 255 0 255
0.0090800 2.0071100 -12.1644000 255 0 255
0.0062900 1.9162800 -12.6893000 255 0 255
0.0079720 1.3657200 -12.0751000 255 0 255
0.0069980 1.3317800 -12.0989000 255 0 255
0.0061340 1.3030600 -12.1064000 255 0 255
0.0123070 2.0286100 -12.2137000 255 0 255
0.0107230 2.0148000 -12.1915000 255 0 255
0.0080770 1.9150500 -12.7259000 255 0 255
0.0099400 1.9068900 -12.7686000 255 0 255
0.0111770 1.4813400 -11.9569000 255 0 255
0.0101740 1.4457300 -11.9879000 255 0 255
0.0095940 1.4300600 -11.9564000 255 0 255
0.0115620 1.3491500 -11.9903000 255 0 255
0.0157090 2.0345700 -12.2760000 255 0 255
0.0139710 2.0348700 -12.2421000 255 0 255
0.0117780 1.9021600 -12.8085000 255 0 255
0.0135790 1.3699900 -12.0065000 255 0 255
0.0175830 2.0223600 -12.3200000 255 0 255
0.0183840 2.0255200 -12.0979000 255 0 255
0.0184600 1.9942900 -12.1053000 255 0 255
0.0153410 1.9061000 -12.8771000 255 0 255
0.0136260 1.8974100 -12.8487000 255 0 255
