-5.5688600 0.2732540 -11.7992000 255 255 0
-5.5790300 0.1270010 -11.7835000 255 255 0
-5.5830300 0.5900210 -11.9197000 255 255 0
-5.5536700 0.3951880 -11.8079000 255 255 0
-5.5646000 0.2485930 -11.7935000 255 255 0
-5.5435100 0.3693880 -11.7920000 255 255 0
-5.5633100 0.2244000 -11.7928000 255 255 0
-5.5716500 0.1020990 -11.7724000 255 255 0
-5.6268800 0.6107710 -12.0235000 255 255 0
-5.7123200 0.5735620 -12.1776000 255 255 0
-5.5702800 0.5327270 -11.8876000 255 255 0
-5.5642800 0.0772580 -11.7614000 255 255 0
-5.6185000 0.6256160 -12.0171000 255 255 0
-5.7121000 0.5635970 -12.1845000 255 255 0
-5.5976300 0.5777070 -11.9623000 255 255 0
-5.5486300 0.4912710 -11.8448000 255 255 0
-5.5412300 0.3449990 -11.7897000 255 255 0
-5.5624200 0.2002730 -11.7928000 255 255 0
-5.5671400 0.0536760 -11.7677000 255 255 0
-5.6259900 0.6210810 -12.0382000 255 255 0
-5.5422300 0.4459350 -11.8278000 255 255 0
-5.5428700 0.3212750 -11.7940000 255 255 0
-5.5633900 0.1764100 -11.7960000 255 255 0
-5.7163900 0.5831830 -12.2066000 255 255 0
-5.5455100 0.2976920 -11.8001000 255 255 0
-5.5626000 0.1523000 -11.7962000 255 255 0
-5.5629200 0.0292670 -11.7620000 255 255 0
-5.6363500 0.6136770 -12.0646000 255 255 0
-5.7222700 0.5598710 -12.2223000 255 255 0
-5.5862200 0.5995720 -11.9637000 255 255 0
-5.5489200 0.5848800 -11.8870000 255 255 0
-5.5324600 0.4200640 -11.8125000 255 255 0
-5.5606300 0.1280400 -11.7943000 255 255 0
-5.5620800 0.0052600 -11.7621000 255 255 0
-5.7215200 0.5912180 -12.2371000 255 255 0
-5.6479300 0.5962090 -12.0900000 255 255 0
-5.7426600 0.5259690 -12.2616000 255 255 0
-5.5421600 0.5167040 -11.8621000 255 255 0
-5.5397300 0.2727710 -11.7917000 255 255 0
-5.6630600 0.5882550 -12.1243000 255 255 0
-5.5274200 0.3951150 -11.8054000 255 255 0
-5.5345900 0.2479930 -11.7844000 255 255 0
-5.5470900 0.1023320 -11.7726000 255 255 0
-5.5839900 0.6185470 -11.9838000 255 255 0
-5.6016100 0.6039010 -12.0166000 255 255 0
-5.5538200 0.6145720 -11.9233000 255 255 0
-5.5354600 0.4807070 -11.8537000 255 255 0
-5.5191100 0.4777870 -11.8176000 255 255 0
-5.5230700 0.3703240 -11.7995000 255 255 0
-5.5340700 0.2239400 -11.7851000 255 255 0
-5.7208700 0.5763940 -12.2460000 255 255 0
-5.5424800 0.6101260 -11.9042000 255 255 0
-5.5396800 0.5348880 -11.8841000 255 255 0
-5.5185600 0.3455410 -11.7933000 255 255 0
-5.5753000 0.6450100 -11.9854000 255 255 0
-5.6942000 0.5426220 -12.1970000 255 255 0
-5.5178400 0.4702870 -11.8270000 255 255 0
-5.5213800 0.4505020 -11.8283000 255 255 0
-5.5334900 0.1998790 -11.7856000 255 255 0
-5.5233800 0.0754960 -11.7335000 255 255 0
-5.5381200 0.0533880 -11.7603000 255 255 0
-5.5865000 0.6301800 -12.0103000 255 255 0
-5.5149800 0.4990010 -11.8377000 255 255 0
-5.5149900 0.3209490 -11.7886000 255 255 0
-5.5369500 0.1763850 -11.7931000 255 255 0
-5.5411900 0.0298260 -11.7670000 255 255 0
-5.7196500 0.5926030 -12.2700000 255 255 0
-5.5453100 0.6187270 -11.9326000 255 255 0
-5.5081100 0.4443760 -11.8117000 255 255 0
-5.5172800 0.2973300 -11.7942000 255 255 0
-5.5364100 0.1523180 -11.7937000 255 255 0
-5.7364100 0.5325410 -12.2927000 255 255 0
-5.5007500 0.4189800 -11.8006000 255 255 0
-5.5143600 0.2728720 -11.7907000 255 255 0
-5.5388900 0.0056490 -11.7646000 255 255 0
-5.5688400 0.6702250 -12.0025000 255 255 0
-5.5951100 0.6323870 -12.0452000 255 255 0
-5.5286800 0.1273100 -11.7819000 255 255 0
-5.7219000 0.6027720 -12.2982000 255 255 0
-5.6855400 0.6011060 -12.2253000 255 255 0
-5.5276200 0.6571700 -11.9280000 255 255 0
-5.6760700 0.5885240 -12.2002000 255 255 0
-5.5031400 0.6146560 -11.8651000 255 255 0
-5.5016200 0.5370120 -11.8467000 255 255 0
-5.4934100 0.3936480 -11.7894000 255 255 0
-5.5137900 0.2487940 -11.7912000 255 255 0
-5.5186300 0.1020720 -11.7662000 255 255 0
-5.5951300 0.6373540 -12.0596000 255 255 0
-5.6080000 0.6280490 -12.0861000 255 255 0
-5.5388800 0.6439440 -11.9498000 255 255 0
-5.4965800 0.4952500 -11.8316000 255 255 0
-5.4923100 0.3694640 -11.7891000 255 255 0
-5.5093500 0.2241430 -11.7851000 255 255 0
-5.5048500 0.4804140 -11.8478000 255 255 0
-5.4910200 0.3452550 -11.7884000 255 255 0
-5.5069400 0.1998220 -11.7825000 255 255 0
-5.7016900 0.5922900 -12.2711000 255 255 0
-5.5009600 0.6322160 -11.8874000 255 255 0
-5.4931200 0.4704870 -11.8272000 255 255 0
-5.4873400 0.0743100 -11.7138000 255 255 0
-5.5347800 0.6649850 -11.9697000 255 255 0
-5.4929200 0.5665110 -11.8612000 255 255 0
-5.4914500 0.4460870 -11.8259000 255 255 0
-5.4877900 0.3207320 -11.7844000 255 255 0
-5.5079400 0.1759950 -11.7857000 255 255 0
-5.4986400 0.0518530 -11.7348000 255 255 0
-5.5146500 0.0298380 -11.7638000 255 255 0
-5.5450000 0.6496390 -11.9904000 255 255 0
-5.4898100 0.2970830 -11.7894000 255 255 0
-5.5069000 0.1518810 -11.7855000 255 255 0
-5.5213800 0.0066640 -11.7769000 255 255 0
-5.6683300 0.6391470 -12.2378000 255 255 0
-5.7006700 0.6097450 -12.2933000 255 255 0
-5.4768000 0.5151410 -11.8251000 255 255 0
-5.4761000 0.4191840 -11.8008000 255 255 0
-5.4858700 0.2724770 -11.7842000 255 255 0
-5.5021500 0.1272860 -11.7788000 255 255 0
-5.5211000 -0.0173110 -11.7779000 255 255 0
-5.7285500 0.6194750 -12.3575000 255 255 0
-5.4986800 0.6499690 -11.9095000 255 255 0
-5.5208200 -0.0412850 -11.7789000 255 255 0
-5.5915400 0.6713700 -12.1054000 255 255 0
-5.5209300 0.6896540 -11.9735000 255 255 0
-5.5495700 0.6580150 -12.0198000 255 255 0
-5.4739500 0.6146260 -11.8631000 255 255 0
-5.4641500 0.3930190 -11.7816000 255 255 0
-5.4854000 0.2484330 -11.7849000 255 255 0
-5.4940900 0.1023050 -11.7664000 255 255 0
-5.4685800 0.5438410 -11.8402000 255 255 0
-5.4638300 0.3689930 -11.7826000 255 255 0
-5.4848800 0.2243840 -11.7855000 255 255 0
-5.4899200 0.0778700 -11.7607000 255 255 0
-5.7311600 0.6291220 -12.3862000 255 255 0
-5.6077300 0.6754160 -12.1555000 255 255 0
-5.4962300 0.6680140 -11.9314000 255 255 0
-5.4660900 0.3454100 -11.7881000 255 255 0
-5.4843000 0.2003280 -11.7861000 255 255 0
-5.7149300 0.6199450 -12.3603000 255 255 0
-5.5405500 0.6821170 -12.0267000 255 255 0
-5.4508200 0.4953630 -11.8021000 255 255 0
-5.4604200 0.4691420 -11.8135000 255 255 0
-5.4653000 0.3212970 -11.7883000 255 255 0
-5.4817100 0.1759910 -11.7831000 255 255 0
-5.4780400 0.0525500 -11.7417000 255 255 0
-5.6949800 0.6116300 -12.3253000 255 255 0
-5.4653200 0.6438940 -11.8775000 255 255 0
-5.4587600 0.4447790 -11.8122000 255 255 0
-5.4932300 0.0304340 -11.7694000 255 255 0
-5.7440900 0.6209270 -12.4280000 255 255 0
-5.4571800 0.5783120 -11.8513000 255 255 0
-5.4578600 0.5701730 -11.8461000 255 255 0
-5.4648100 0.2972350 -11.7890000 255 255 0
-5.4786600 0.1516120 -11.7793000 255 255 0
-5.5007100 0.0073370 -11.7838000 255 255 0
-5.5082200 -0.0158240 -11.7983000 255 255 0
-5.5447000 0.6884750 -12.0568000 255 255 0
-5.4944500 0.6848770 -11.9541000 255 255 0
-5.4516900 0.5447640 -11.8369000 255 255 0
-5.4514600 0.4193880 -11.8010000 255 255 0
-5.4643500 0.2731810 -11.7897000 255 255 0
-5.4750100 0.1271760 -11.7745000 255 255 0
-5.7034000 0.6110640 -12.3614000 255 255 0
-5.4421700 0.5249320 -11.8167000 255 255 0
-5.4441900 0.3940590 -11.7899000 255 255 0
-5.4609000 0.2486660 -11.7853000 255 255 0
-5.5032600 -0.0403220 -11.7912000 255 255 0
-5.7447500 0.6340130 -12.4545000 255 255 0
-5.4620700 0.6633880 -11.8984000 255 255 0
-5.4630600 0.2250200 -11.7906000 255 255 0
-5.4721400 0.1028680 -11.7711000 255 255 0
-5.5438400 0.7037690 -12.0808000 255 255 0
-5.4926600 0.7017400 -11.9768000 255 255 0
-5.4446700 0.6147930 -11.8610000 255 255 0
-5.4425400 0.3697830 -11.7886000 255 255 0
-5.4685400 0.0784930 -11.7663000 255 255 0
-5.5245600 0.6786620 -12.0417000 255 255 0
-5.7187100 0.5985520 -12.4061000 255 255 0
-5.4435500 0.3459740 -11.7919000 255 255 0
-5.4628100 0.2010030 -11.7917000 255 255 0
-5.4659000 0.0542600 -11.7633000 255 255 0
-5.7528100 0.6343380 -12.4903000 255 255 0
-5.4583400 0.6837510 -11.9187000 255 255 0
-5.4305400 0.5939340 -11.8402000 255 255 0
-5.4347400 0.4779250 -11.8182000 255 255 0
-5.4291300 0.4680570 -11.8021000 255 255 0
-5.4407100 0.3215090 -11.7885000 255 255 0
-5.4585900 0.1764240 -11.7859000 255 255 0
-5.5536900 0.7000680 -12.1180000 255 255 0
-5.5023700 0.7019550 -12.0149000 255 255 0
-5.5092400 0.6856810 -12.0222000 255 255 0
-5.4214000 0.4955480 -11.8000000 255 255 0
-5.4284200 0.4710150 -11.8058000 255 255 0
-5.4271500 0.4436630 -11.8002000 255 255 0
-5.4547300 0.1519270 -11.7807000 255 255 0
-5.4571300 0.0293410 -11.7496000 255 255 0
-5.4849600 0.0085590 -11.7994000 255 255 0
-5.7668700 0.6244060 -12.5338000 255 255 0
-5.7267200 0.5988150 -12.4419000 255 255 0
-5.4376900 0.6411070 -11.8774000 255 255 0
-5.4273000 0.5691310 -11.8361000 255 255 0
-5.4236800 0.5038280 -11.8168000 255 255 0
-5.4372400 0.2969640 -11.7840000 255 255 0
-5.4797400 -0.0159920 -11.7918000 255 255 0
-5.5141300 0.6990830 -12.0543000 255 255 0
-5.4211600 0.5437520 -11.8269000 255 255 0
-5.4229800 0.4188770 -11.7945000 255 255 0
-5.4368300 0.2729320 -11.7848000 255 255 0
-5.4523300 0.1276550 -11.7780000 255 255 0
-5.4833400 -0.0395960 -11.7995000 255 255 0
-5.5074500 0.7026000 -12.0450000 255 255 0
-5.4565500 0.7005840 -11.9414000 255 255 0
-5.4188100 0.3941260 -11.7888000 255 255 0
-5.4364600 0.2489080 -11.7857000 255 255 0
-5.4488800 0.1032670 -11.7735000 255 255 0
-5.4956300 0.7256350 -12.0323000 255 255 0
-5.7273800 0.6119180 -12.4684000 255 255 0
-5.4117500 0.5177550 -11.8119000 255 255 0
-5.4175300 0.3699180 -11.7881000 255 255 0
-5.4385200 0.2252510 -11.7909000 255 255 0
-5.4485900 0.0792980 -11.7745000 255 255 0
-5.5236000 0.6998430 -12.0906000 255 255 0
-5.4268700 0.6744200 -11.8890000 255 255 0
-5.4048300 0.4923340 -11.8013000 255 255 0
-5.4383500 0.2012460 -11.7921000 255 255 0
-5.5125800 0.7071590 -12.0764000 255 255 0
-5.4574900 0.7125010 -11.9674000 255 255 0
-5.6939500 0.5892360 -12.4107000 255 255 0
-5.4236200 0.5998370 -11.8690000 255 255 0
-5.4166400 0.3457860 -11.7881000 255 255 0
-5.4483000 0.0553300 -11.7755000 255 255 0
-5.5524500 0.7299080 -12.1667000 255 255 0
-5.7379000 0.6079200 -12.5074000 255 255 0
-5.4078700 0.5945710 -11.8441000 255 255 0
-5.3990200 0.4671880 -11.7927000 255 255 0
-5.4175600 0.3219660 -11.7913000 255 255 0
-5.4348400 0.1767670 -11.7875000 255 255 0
-5.4480200 0.0313610 -11.7766000 255 255 0
-5.4604700 0.0088150 -11.7998000 255 255 0
-5.7523000 0.6600100 -12.5556000 255 255 0
-5.7722200 0.6438820 -12.5922000 255 255 0
-5.3948700 0.4424040 -11.7870000 255 255 0
-5.4153500 0.2976210 -11.7890000 255 255 0
-5.4336200 0.1526320 -11.7869000 255 255 0
-5.5223600 0.7034640 -12.1136000 255 255 0
-5.4598000 0.7219710 -11.9952000 255 255 0
-5.4205800 0.6994360 -11.9061000 255 255 0
-5.7095200 0.5762150 -12.4561000 255 255 0
-5.4009200 0.5689700 -11.8334000 255 255 0
-5.4123000 0.2731580 -11.7852000 255 255 0
-5.4315500 0.1283900 -11.7848000 255 255 0
-5.4561300 -0.0156430 -11.7937000 255 255 0
-5.5600100 0.7303880 -12.2013000 255 255 0
-5.7430200 0.6133480 -12.5397000 255 255 0
-5.4111800 0.6362530 -11.8786000 255 255 0
-5.3971100 0.5996310 -11.8410000 255 255 0
-5.3945400 0.5435430 -11.8237000 255 255 0
-5.3939900 0.4182660 -11.7870000 255 255 0
-5.4515700 -0.0189070 -11.7896000 255 255 0
-5.4583100 0.7513480 -12.0114000 255 255 0
-5.3897600 0.3935200 -11.7811000 255 255 0
-5.4107900 0.2489580 -11.7841000 255 255 0
-5.4274900 0.1039060 -11.7793000 255 255 0
-5.5205700 0.7204390 -12.1365000 255 255 0
-5.4703200 0.7166830 -12.0332000 255 255 0
-5.4188000 0.7162390 -11.9287000 255 255 0
-5.7083000 0.5925880 -12.4803000 255 255 0
-5.3865400 0.5178380 -11.8112000 255 255 0
-5.3894000 0.3694970 -11.7821000 255 255 0
-5.4114300 0.2250940 -11.7867000 255 255 0
-5.4269300 0.0798930 -11.7798000 255 255 0
-5.7441900 0.6256500 -12.5670000 255 255 0
-5.4016400 0.6230000 -11.8755000 255 255 0
-5.3842900 0.4933510 -11.8088000 255 255 0
-5.4109500 0.2010570 -11.7874000 255 255 0
-5.4306800 0.0564020 -11.7879000 255 255 0
-5.3959100 0.6778050 -11.8847000 255 255 0
-5.3890400 0.3454750 -11.7830000 255 255 0
-5.4137100 0.1774860 -11.7938000 255 255 0
-5.4363600 0.0331020 -11.7993000 255 255 0
-5.4134100 0.7858500 -11.9567000 255 255 0
-5.7426100 0.6294070 -12.5815000 255 255 0
-5.4722000 0.7270050 -12.0605000 255 255 0
-5.4179200 0.7314090 -11.9525000 255 255 0
-5.7105900 0.6028580 -12.5090000 255 255 0
-5.3839500 0.5949390 -11.8457000 255 255 0
-5.3744100 0.4673870 -11.7929000 255 255 0
-5.3912100 0.3218800 -11.7884000 255 255 0
-5.4301100 0.0084110 -11.7899000 255 255 0
-5.5197200 0.7357640 -12.1605000 255 255 0
-5.7572900 0.6173660 -12.6096000 255 255 0
-5.3778500 0.5695120 -11.8365000 255 255 0
-5.3658800 0.4417640 -11.7794000 255 255 0
-5.3906600 0.2978180 -11.7890000 255 255 0
-5.4135200 0.1534800 -11.7950000 255 255 0
-5.3877800 0.2733830 -11.7855000 255 255 0
-5.4094900 0.1289570 -11.7895000 255 255 0
-5.4286700 -0.0157080 -11.7889000 255 255 0
-5.4285700 0.7789410 -12.0056000 255 255 0
-5.7420700 0.6464390 -12.6047000 255 255 0
-5.4749900 0.7356980 -12.0890000 255 255 0
-5.3829500 0.7150680 -11.8935000 255 255 0
-5.3698600 0.5437360 -11.8240000 255 255 0
-5.3655300 0.4177430 -11.7804000 255 255 0
-5.4066900 0.1046270 -11.7861000 255 255 0
-5.4393500 -0.0305760 -11.8122000 255 255 0
-5.5193300 0.7502710 -12.1851000 255 255 0
-5.7554800 0.6348620 -12.6332000 255 255 0
-5.4197400 0.7416890 -11.9796000 255 255 0
-5.7073100 0.6228520 -12.5306000 255 255 0
-5.3801700 0.6396630 -11.8744000 255 255 0
-5.3624300 0.5181440 -11.8124000 255 255 0
-5.3645500 0.3936090 -11.7802000 255 255 0
-5.3863300 0.2491940 -11.7845000 255 255 0
-5.3635500 0.3694760 -11.7800000 255 255 0
-5.3858000 0.2251550 -11.7851000 255 255 0
-5.4041100 0.0803450 -11.7831000 255 255 0
-5.7438500 0.6600160 -12.6313000 255 255 0
-5.3802800 0.7334710 -11.9150000 255 255 0
-5.3653700 0.4946980 -11.8192000 255 255 0
-5.3637600 0.3455610 -11.7820000 255 255 0
-5.3865600 0.2013080 -11.7880000 255 255 0
-5.4074200 0.0567990 -11.7904000 255 255 0
-5.7536800 0.6523580 -12.6568000 255 255 0
-5.4777900 0.7444050 -12.1175000 255 255 0
-5.6996100 0.6505180 -12.5464000 255 255 0
-5.6915000 0.6452350 -12.5243000 255 255 0
-5.4224700 0.7503500 -12.0079000 255 255 0
-5.3574100 0.4690820 -11.8067000 255 255 0
-5.3893600 0.1777470 -11.7945000 255 255 0
-5.4119500 0.0333640 -11.7999000 255 255 0
-5.3672100 0.6770830 -11.8832000 255 255 0
-5.3534700 0.5938700 -11.8358000 255 255 0
-5.3640800 0.3216610 -11.7841000 255 255 0
-5.3908300 0.1539720 -11.7986000 255 255 0
-5.4115700 0.0093350 -11.8007000 255 255 0
-5.7466300 0.6720960 -12.6593000 255 255 0
-5.6942200 0.6572380 -12.5521000 255 255 0
-5.6800000 0.6035120 -12.5063000 255 255 0
-5.3645800 0.6009840 -11.8642000 255 255 0
-5.3460000 0.5681680 -11.8240000 255 255 0
-5.3532800 0.4442670 -11.8009000 255 255 0
-5.3659800 0.2980170 -11.7891000 255 255 0
-5.3887700 0.1297070 -11.7965000 255 255 0
-5.4052600 -0.0153380 -11.7911000 255 255 0
-5.4796800 0.7547700 -12.1450000 255 255 0
-5.4207000 0.7671790 -12.0305000 255 255 0
-5.7125600 0.6423190 -12.5889000 255 255 0
-5.3749400 0.7567430 -11.9331000 255 255 0
-5.3491600 0.4194870 -11.7952000 255 255 0
-5.3655100 0.2739720 -11.7898000 255 255 0
-5.7518800 0.6698540 -12.6803000 255 255 0
-5.3406500 0.5429760 -11.8161000 255 255 0
-5.3628500 0.2495840 -11.7866000 255 255 0
-5.3846300 0.1051860 -11.7907000 255 255 0
-5.4010200 -0.0204020 -11.7892000 255 255 0
-5.7443800 0.6917650 -12.6801000 255 255 0
-5.6969400 0.6692620 -12.5800000 255 255 0
-5.3578900 0.7679500 -11.9191000 255 255 0
-5.6598000 0.6318730 -12.4948000 255 255 0
-5.6800500 0.6176720 -12.5322000 255 255 0
-5.3534300 0.7159780 -11.8909000 255 255 0
-5.3364800 0.5180700 -11.8103000 255 255 0
-5.3405900 0.3939240 -11.7815000 255 255 0
-5.3624900 0.2255690 -11.7875000 255 255 0
-5.3822600 0.0809220 -11.7880000 255 255 0
-5.4742400 0.7782640 -12.1631000 255 255 0
-5.4234400 0.7758680 -12.0589000 255 255 0
-5.3687200 0.7816030 -11.9501000 255 255 0
-5.7255800 0.6340770 -12.6316000 255 255 0
-5.3469700 0.6471970 -11.8673000 255 255 0
-5.3402300 0.3699050 -11.7825000 255 255 0
-5.3652300 0.2020140 -11.7939000 255 255 0
-5.3835900 0.0571260 -11.7919000 255 255 0
-5.7500800 0.6873490 -12.7039000 255 255 0
-5.7197100 0.6510310 -12.6368000 255 255 0
-5.3284800 0.6003870 -11.8287000 255 255 0
-5.3350100 0.4937440 -11.8093000 255 255 0
-5.3391500 0.3457630 -11.7821000 255 255 0
-5.3876100 0.0336330 -11.8005000 255 255 0
-5.6496600 0.6634520 -12.5042000 255 255 0
-5.6772000 0.6369320 -12.5543000 255 255 0
-5.3410300 0.7522620 -11.9002000 255 255 0
-5.3358100 0.4698800 -11.8123000 255 255 0
-5.3387400 0.3217400 -11.7830000 255 255 0
-5.3668300 0.1782680 -11.7983000 255 255 0
-5.4287800 0.7798940 -12.0906000 255 255 0
-5.7237800 0.6515680 -12.6551000 255 255 0
-5.3400400 0.4466680 -11.8215000 255 255 0
-5.3391200 0.2978500 -11.7852000 255 255 0
-5.3668800 0.1542900 -11.7999000 255 255 0
-5.3872000 0.0096010 -11.8013000 255 255 0
-5.7325600 0.6479010 -12.6794000 255 255 0
-5.3265800 0.6984880 -11.8668000 255 255 0
-5.3321300 0.4211210 -11.8089000 255 255 0
-5.3645000 0.1299820 -11.7973000 255 255 0
-5.3795600 -0.0152160 -11.7893000 255 255 0
-5.3404500 0.8465850 -11.9393000 255 255 0
-5.6466700 0.6840780 -12.5237000 255 255 0
-5.6876500 0.6329740 -12.5936000 255 255 0
-5.3200400 0.6296480 -11.8431000 255 255 0
-5.3138100 0.5667340 -11.8108000 255 255 0
-5.3387300 0.2738310 -11.7861000 255 255 0
-5.3642100 0.1059640 -11.7983000 255 255 0
-5.3750800 0.0137470 -11.7912000 255 255 0
-5.7219800 0.6690650 -12.6787000 255 255 0
-5.3352900 0.7762830 -11.9177000 255 255 0
-5.3148100 0.5578150 -11.8209000 255 255 0
-5.3121700 0.5423580 -11.8095000 255 255 0
-5.3223500 0.3952970 -11.7931000 255 255 0
-5.3383800 0.2498190 -11.7870000 255 255 0
-5.3743100 0.0029450 -11.7970000 255 255 0
-5.3651900 0.8150890 -11.9952000 255 255 0
-5.3050500 0.5168560 -11.7983000 255 255 0
-5.3201400 0.3709200 -11.7907000 255 255 0
-5.3409600 0.2262550 -11.7932000 255 255 0
-5.3599500 0.0814420 -11.7922000 255 255 0
-5.6629300 0.6754140 -12.5711000 255 255 0
-5.6956900 0.6332920 -12.6299000 255 255 0
-5.3168700 0.7299260 -11.8794000 255 255 0
-5.3009600 0.6417050 -11.8274000 255 255 0
-5.3410300 0.2022940 -11.7948000 255 255 0
-5.3594900 0.0574210 -11.7930000 255 255 0
-5.3204700 0.7491390 -11.9008000 255 255 0
-5.3006200 0.6793620 -11.8438000 255 255 0
-5.2990700 0.4916470 -11.7892000 255 255 0
-5.3153200 0.3461010 -11.7837000 255 255 0
-5.3430000 0.1786050 -11.7999000 255 255 0
-5.3633400 0.0339120 -11.8013000 255 255 0
-5.7129400 0.7100300 -12.6992000 255 255 0
-5.7152400 0.6950930 -12.6958000 255 255 0
-5.3137600 0.8292040 -11.9154000 255 255 0
-5.6855200 0.6572240 -12.6278000 255 255 0
-5.2911900 0.6154270 -11.8114000 255 255 0
-5.3043900 0.4687310 -11.8004000 255 255 0
-5.3142300 0.3219610 -11.7833000 255 255 0
-5.3644900 0.0100590 -11.8049000 255 255 0
-5.6938900 0.6507830 -12.6535000 255 255 0
-5.6278700 0.6510970 -12.5128000 255 255 0
-5.3075900 0.7217380 -11.8792000 255 255 0
-5.2930300 0.5918030 -11.8164000 255 255 0
-5.3108500 0.4459880 -11.8136000 255 255 0
-5.3130900 0.2978200 -11.7828000 255 255 0
-5.3410000 0.1543380 -11.7979000 255 255 0
-5.3051700 0.8475580 -11.9109000 255 255 0
-5.2944500 0.5680700 -11.8205000 255 255 0
-5.3075000 0.4213250 -11.8092000 255 255 0
-5.3365300 0.1297510 -11.7914000 255 255 0
-5.7085100 0.7210730 -12.7129000 255 255 0
-5.6273100 0.6680400 -12.5358000 255 255 0
-5.2977500 0.6951730 -11.8631000 255 255 0
-5.3126900 0.2738080 -11.7837000 255 255 0
-5.3360600 0.1057270 -11.7921000 255 255 0
-5.3597100 0.8672460 -12.0421000 255 255 0
-5.2945700 0.8777560 -11.9158000 255 255 0
-5.6578200 0.6321930 -12.5920000 255 255 0
-5.2871800 0.6685250 -11.8457000 255 255 0
-5.2847400 0.6413080 -11.8334000 255 255 0
-5.2864100 0.5423100 -11.8077000 255 255 0
-5.3018000 0.3962500 -11.8005000 255 255 0
-5.3130700 0.2499190 -11.7859000 255 255 0
-5.3401200 0.0822810 -11.8009000 255 255 0
-5.3652900 -0.0115200 -11.8257000 255 255 0
-5.2963900 0.8766620 -11.9212000 255 255 0
-5.6920900 0.6682770 -12.6771000 255 255 0
-5.2936200 0.7997670 -11.8997000 255 255 0
-5.2766900 0.5162700 -11.7918000 255 255 0
-5.2974500 0.3714680 -11.7943000 255 255 0
-5.3136300 0.2260530 -11.7885000 255 255 0
-5.3398300 0.0582630 -11.8019000 255 255 0
-5.2777900 0.6422370 -11.8303000 255 255 0
-5.2943100 0.3469370 -11.7902000 255 255 0
-5.3133900 0.2020590 -11.7896000 255 255 0
-5.2889700 0.8484520 -11.9156000 255 255 0
-5.6133000 0.7055600 -12.5394000 255 255 0
-5.6609100 0.6410890 -12.6219000 255 255 0
-5.2952800 0.7492350 -11.9005000 255 255 0
-5.2721800 0.6168890 -11.8218000 255 255 0
-5.2688800 0.4906990 -11.7794000 255 255 0
-5.3171300 0.1786440 -11.7978000 255 255 0
-5.3412500 0.0344470 -11.8060000 255 255 0
-5.2767000 0.9230500 -11.9158000 255 255 0
-5.6843900 0.6960090 -12.6929000 255 255 0
-5.2741600 0.4678080 -11.7905000 255 255 0
-5.2904300 0.3223030 -11.7849000 255 255 0
-5.3200600 0.1550810 -11.8046000 255 255 0
-5.3386900 0.0101620 -11.8029000 255 255 0
-5.3325400 0.8956660 -12.0292000 255 255 0
-5.2853300 0.8284820 -11.9139000 255 255 0
-5.2789900 0.7209850 -11.8726000 255 255 0
-5.2709000 0.5925510 -11.8211000 255 255 0
-5.2824600 0.4454580 -11.8070000 255 255 0
-5.2900900 0.2982950 -11.7858000 255 255 0
-5.3165300 0.1306050 -11.7998000 255 255 0
-5.2750800 0.8824450 -11.9102000 255 255 0
-5.6640000 0.6499990 -12.6519000 255 255 0
-5.2718400 0.5687070 -11.8245000 255 255 0
-5.2819400 0.4213490 -11.8077000 255 255 0
-5.2897500 0.2742880 -11.7868000 255 255 0
-5.3270300 0.8663320 -12.0202000 255 255 0
-5.2647500 0.7863980 -11.8730000 255 255 0
-5.2645000 0.6933070 -11.8479000 255 255 0
-5.2692800 0.5441040 -11.8215000 255 255 0
-5.2816200 0.3972800 -11.8087000 255 255 0
-5.2886400 0.2501580 -11.7863000 255 255 0
-5.3117500 0.1059940 -11.7928000 255 255 0
-5.6767100 0.7236800 -12.7086000 255 255 0
-5.2605200 0.6682480 -11.8424000 255 255 0
-5.2784900 0.3726990 -11.8046000 255 255 0
-5.3164800 0.0826380 -11.8028000 255 255 0
-5.3385200 0.0118910 -11.8336000 255 255 0
-5.3549100 -0.0249730 -11.8522000 255 255 0
-5.2622900 0.8858400 -11.9102000 255 255 0
-5.2757500 0.8595180 -11.9264000 255 255 0
-5.2694700 0.8222750 -11.9068000 255 255 0
-5.2595800 0.5180270 -11.8056000 255 255 0
-5.2891400 0.2262840 -11.7888000 255 255 0
-5.3209100 0.0592010 -11.8123000 255 255 0
-5.6524200 0.6845730 -12.6626000 255 255 0
-5.2553500 0.6429430 -11.8346000 255 255 0
-5.2517800 0.4924210 -11.7931000 255 255 0
-5.2733500 0.3477880 -11.7970000 255 255 0
-5.2888700 0.2022880 -11.7899000 255 255 0
-5.3177900 0.0348230 -11.8082000 255 255 0
-5.6698900 0.7498430 -12.7255000 255 255 0
-5.2596000 0.8519180 -11.9077000 255 255 0
-5.2543300 0.8191270 -11.8844000 255 255 0
-5.2512600 0.6179280 -11.8289000 255 255 0
-5.2589200 0.4698780 -11.8076000 255 255 0
-5.2694300 0.3231300 -11.7915000 255 255 0
-5.2886100 0.1782950 -11.7910000 255 255 0
-5.6604100 0.6849800 -12.6990000 255 255 0
-5.2512400 0.8278720 -11.8866000 255 255 0
-5.2545600 0.7454260 -11.8718000 255 255 0
-5.2495500 0.5934800 -11.8274000 255 255 0
-5.2611900 0.4463130 -11.8133000 255 255 0
-5.2946700 0.1551960 -11.8034000 255 255 0
-5.2483800 0.9231430 -11.9130000 255 255 0
-5.2601700 0.9015630 -11.9311000 255 255 0
-5.2477300 0.8837200 -11.9054000 255 255 0
-5.2401200 0.7176870 -11.8472000 255 255 0
-5.2625400 0.4225520 -11.8173000 255 255 0
-5.2685600 0.2990190 -11.7915000 255 255 0
-5.2962500 0.1314270 -11.8078000 255 255 0
-5.2482700 0.5691380 -11.8267000 255 255 0
-5.2680400 0.2749710 -11.7921000 255 255 0
-5.2929600 0.1069920 -11.8034000 255 255 0
-5.6597400 0.7817350 -12.7379000 255 255 0
-5.2512900 0.8265960 -11.9089000 255 255 0
-5.6341200 0.6492130 -12.6502000 255 255 0
-5.2369600 0.6928060 -11.8431000 255 255 0
-5.2444800 0.5442650 -11.8214000 255 255 0
-5.2626200 0.3985360 -11.8191000 255 255 0
-5.2649200 0.2505100 -11.7881000 255 255 0
-5.2971700 0.0835500 -11.8125000 255 255 0
-5.2384200 0.9540800 -11.9214000 255 255 0
-5.6439700 0.7279810 -12.7031000 255 255 0
-5.2320000 0.7937290 -11.8660000 255 255 0
-5.2322500 0.6675830 -11.8361000 255 255 0
-5.2379500 0.5188480 -11.8112000 255 255 0
-5.2586900 0.3737850 -11.8136000 255 255 0
-5.2685900 0.2271290 -11.7962000 255 255 0
-5.2991400 0.0597900 -11.8176000 255 255 0
-5.3282400 -0.0016440 -11.8604000 255 255 0
-5.3313500 -0.0273080 -11.8554000 255 255 0
-5.2476700 0.9378760 -11.9397000 255 255 0
-5.6226900 0.7718230 -12.6728000 255 255 0
-5.2306600 0.6431260 -11.8349000 255 255 0
-5.2535700 0.3488540 -11.8059000 255 255 0
-5.2695700 0.2033070 -11.7996000 255 255 0
-5.3117600 0.0352980 -11.8414000 255 255 0
-5.6465000 0.8189150 -12.7460000 255 255 0
-5.2357100 0.8830510 -11.9099000 255 255 0
-5.2465000 0.8603920 -11.9238000 255 255 0
-5.6177400 0.6923070 -12.6545000 255 255 0
-5.2365000 0.4945310 -11.8102000 255 255 0
-5.2722600 0.1797250 -11.8060000 255 255 0
-5.2920900 0.0349290 -11.8064000 255 255 0
-5.2471600 0.9706200 -11.9614000 255 255 0
-5.2336500 0.8515910 -11.9052000 255 255 0
-5.2164200 0.7663430 -11.8459000 255 255 0
-5.2284500 0.6185400 -11.8325000 255 255 0
-5.2429400 0.4718150 -11.8235000 255 255 0
-5.2495300 0.3241530 -11.8001000 255 255 0
-5.2794600 0.1567590 -11.8205000 255 255 0
-5.6348900 0.7581080 -12.7169000 255 255 0
-5.2109400 0.8463830 -11.8638000 255 255 0
-5.2157500 0.7420620 -11.8464000 255 255 0
-5.2267800 0.5940910 -11.8311000 255 255 0
-5.2425600 0.4476940 -11.8244000 255 255 0
-5.2478600 0.2998880 -11.7987000 255 255 0
-5.2791600 0.1326930 -11.8215000 255 255 0
-5.2298300 0.9075730 -11.9242000 255 255 0
-5.2163800 0.8894860 -11.8941000 255 255 0
-5.2117700 0.7642540 -11.8502000 255 255 0
-5.2118100 0.7169730 -11.8408000 255 255 0
-5.2244100 0.5695040 -11.8284000 255 255 0
-5.2421300 0.4235670 -11.8252000 255 255 0
-5.2447900 0.2754040 -11.7947000 255 255 0
-5.2275700 0.9087560 -11.9241000 255 255 0
-5.2247600 0.8044510 -11.8953000 255 255 0
-5.2251700 0.7815390 -11.8858000 255 255 0
-5.2122200 0.7688530 -11.8608000 255 255 0
-5.2417200 0.3994440 -11.8261000 255 255 0
-5.2773700 0.1084270 -11.8198000 255 255 0
-5.6306800 0.7797420 -12.7371000 255 255 0
-5.2086300 0.9166580 -11.8983000 255 255 0
-5.2198800 0.8430440 -11.8998000 255 255 0
-5.2122300 0.8359510 -11.8826000 255 255 0
-5.2066700 0.6916260 -11.8331000 255 255 0
-5.2211000 0.5447290 -11.8240000 255 255 0
-5.2404300 0.2507370 -11.7884000 255 255 0
-5.2815800 0.0849500 -11.8290000 255 255 0
-5.3082000 -0.0300190 -11.8593000 255 255 0
-5.2110100 0.9527870 -11.9197000 255 255 0
-5.5679300 0.7939810 -12.6142000 255 255 0
-5.2064500 0.8851660 -11.8924000 255 255 0
-5.2072100 0.8620690 -11.8836000 255 255 0
-5.2035400 0.6668020 -11.8290000 255 255 0
-5.2192800 0.5202980 -11.8223000 255 255 0
-5.2359900 0.3743460 -11.8173000 255 255 0
-5.2401500 0.2267440 -11.7894000 255 255 0
-5.2801600 0.0607320 -11.8279000 255 255 0
-5.3027200 -0.0023040 -11.8600000 255 255 0
-5.2089200 0.9348800 -11.9154000 255 255 0
-5.2014300 0.9112230 -11.8934000 255 255 0
-5.2019800 0.7933200 -11.8634000 255 255 0
-5.2015200 0.6422640 -11.8269000 255 255 0
-5.2188500 0.4961680 -11.8231000 255 255 0
-5.2289800 0.3490650 -11.8061000 255 255 0
-5.2461200 0.2037010 -11.8018000 255 255 0
-5.2858600 0.0350160 -11.8402000 255 255 0
-5.2193100 0.9985690 -11.9591000 255 255 0
-5.2002800 0.9724580 -11.9136000 255 255 0
-5.5852600 0.7778160 -12.6630000 255 255 0
-5.2196100 0.4722790 -11.8261000 255 255 0
-5.2274200 0.3247980 -11.8049000 255 255 0
-5.2551500 0.1810530 -11.8197000 255 255 0
-5.2679800 0.0730670 -11.8185000 255 255 0
-5.2611400 0.9785190 -12.0451000 255 255 0
-5.6168100 0.8181240 -12.7444000 255 255 0
-5.2112100 0.9508950 -11.9358000 255 255 0
-5.1909900 0.7663330 -11.8448000 255 255 0
-5.2019200 0.6182990 -11.8293000 255 255 0
-5.2623300 0.1580590 -11.8343000 255 255 0
-5.1917100 0.9986890 -11.9144000 255 255 0
-5.2090200 0.9677890 -11.9400000 255 255 0
-5.2017700 0.9541030 -11.9224000 255 255 0
-5.1854700 0.7408260 -11.8364000 255 255 0
-5.2015700 0.5941600 -11.8303000 255 255 0
-5.2179700 0.4479080 -11.8247000 255 255 0
-5.2253100 0.3004480 -11.8026000 255 255 0
-5.2582900 0.1334430 -11.8285000 255 255 0
-5.5834800 0.7951680 -12.6863000 255 255 0
-5.1914500 0.9348980 -11.9057000 255 255 0
-5.1762600 0.8576060 -11.8542000 255 255 0
-5.1918700 0.7869290 -11.8700000 255 255 0
-5.1823500 0.7159630 -11.8323000 255 255 0
-5.2003600 0.5698300 -11.8297000 255 255 0
-5.2132900 0.4229590 -11.8178000 255 255 0
-5.2228400 0.2760540 -11.7997000 255 255 0
-5.2579900 0.1093640 -11.8295000 255 255 0
-5.1877000 0.8124930 -11.8725000 255 255 0
-5.1994100 0.5455640 -11.8296000 255 255 0
-5.2117000 0.3986330 -11.8165000 255 255 0
-5.2203100 0.2516700 -11.7966000 255 255 0
-5.2636900 0.0860620 -11.8414000 255 255 0
-5.6006100 0.8604970 -12.7484000 255 255 0
-5.1810200 0.9710970 -11.9048000 255 255 0
-5.5892000 0.8095400 -12.7125000 255 255 0
-5.1694600 0.9312660 -11.8741000 255 255 0
-5.5574000 0.7596810 -12.6380000 255 255 0
-5.1784600 0.8416440 -11.8657000 255 255 0
-5.1772400 0.6906420 -11.8246000 255 255 0
-5.2207500 0.2277730 -11.7990000 255 255 0
-5.2782800 -0.0269090 -11.8510000 255 255 0
-5.6002400 0.7801540 -12.7346000 255 255 0
-5.1600700 0.8996650 -11.8522000 255 255 0
-5.1641900 0.8742800 -11.8496000 255 255 0
-5.1674000 0.8150030 -11.8438000 255 255 0
-5.1733400 0.6656530 -11.8190000 255 255 0
-5.1963300 0.5208510 -11.8256000 255 255 0
-5.2047100 0.3733240 -11.8053000 255 255 0
-5.2774200 -0.0031540 -11.8600000 255 255 0
-5.1551100 0.9256040 -11.8532000 255 255 0
-5.1661100 0.7905600 -11.8431000 255 255 0
-5.1726800 0.6414620 -11.8195000 255 255 0
-5.1944100 0.4964060 -11.8237000 255 255 0
-5.1977400 0.3480770 -11.7942000 255 255 0
-5.2153700 0.2029810 -11.7908000 255 255 0
-5.2591200 0.0584140 -11.8481000 255 255 0
-5.2770300 0.0201960 -11.8700000 255 255 0
-5.1874300 1.0355400 -11.9534000 255 255 0
-5.1938800 0.4722590 -11.8244000 255 255 0
-5.1985300 0.3242540 -11.7972000 255 255 0
-5.2231100 0.1801790 -11.8064000 255 255 0
-5.2321000 0.1574860 -11.8244000 255 255 0
-5.1787800 0.9949180 -11.9327000 255 255 0
-5.5871300 0.8173330 -12.7428000 255 255 0
-5.1620700 0.9764520 -11.8953000 255 255 0
-5.1620600 0.7654110 -11.8373000 255 255 0
-5.1735700 0.6176310 -11.8227000 255 255 0
-5.2007400 0.3006630 -11.8028000 255 255 0
-5.1947000 1.0390000 -11.9867000 255 255 0
-5.1606200 1.0211300 -11.9099000 255 255 0
-5.5847500 0.8486530 -12.7539000 255 255 0
-5.5318900 0.8188200 -12.6295000 255 255 0
-5.1576200 0.8916850 -11.8666000 255 255 0
-5.1564500 0.7398940 -11.8286000 255 255 0
-5.1742800 0.5937500 -11.8257000 255 255 0
-5.1893900 0.4473260 -11.8177000 255 255 0
-5.2336600 0.1336750 -11.8288000 255 255 0
-5.2395800 0.1104360 -11.8411000 255 255 0
-5.1637400 0.9627100 -11.9035000 255 255 0
-5.1572500 0.8674210 -11.8676000 255 255 0
-5.1539900 0.7152190 -11.8257000 255 255 0
-5.1743000 0.5697080 -11.8274000 255 255 0
-5.1855100 0.4225480 -11.8122000 255 255 0
-5.2013200 0.2767790 -11.8055000 255 255 0
-5.1528200 0.9944980 -11.8971000 255 255 0
-5.1583700 0.9317200 -11.8969000 255 255 0
-5.1531900 0.8421460 -11.8618000 255 255 0
-5.1518700 0.8197430 -11.8518000 255 255 0
-5.1743900 0.5456760 -11.8292000 255 255 0
-5.1804500 0.3975790 -11.8045000 255 255 0
-5.2015600 0.2528320 -11.8075000 255 255 0
-5.2417800 0.0866570 -11.8466000 255 255 0
-5.5737600 0.8814460 -12.7614000 255 255 0
-5.5254000 0.8443940 -12.6465000 255 255 0
-5.1505200 0.6903120 -11.8210000 255 255 0
-5.2028400 0.2290440 -11.8114000 255 255 0
-5.2490000 -0.0243230 -11.8438000 255 255 0
-5.1537700 1.0294300 -11.9199000 255 255 0
-5.1416700 0.9669360 -11.8781000 255 255 0
-5.1344200 0.9413760 -11.8565000 255 255 0
-5.5277700 0.7588980 -12.6363000 255 255 0
-5.1244600 0.9066980 -11.8316000 255 255 0
-5.1417700 0.8149230 -11.8423000 255 255 0
-5.1449500 0.6649290 -11.8123000 255 255 0
-5.1705400 0.5208010 -11.8237000 255 255 0
-5.1746100 0.3725090 -11.7954000 255 255 0
-5.2025400 0.2050000 -11.8124000 255 255 0
-5.2481400 -0.0005850 -11.8528000 255 255 0
-5.5520700 0.8117320 -12.7081000 255 255 0
-5.1309800 0.9396040 -11.8599000 255 255 0
-5.1143500 0.9362260 -11.8229000 255 255 0
-5.1356400 0.7892010 -11.8326000 255 255 0
-5.1446400 0.6408390 -11.8134000 255 255 0
-5.1665000 0.4959190 -11.8179000 255 255 0
-5.1687800 0.3474910 -11.7863000 255 255 0
-5.2022300 0.1809560 -11.8134000 255 255 0
-5.2398200 0.0525160 -11.8589000 255 255 0
-5.2525700 0.0186160 -11.8716000 255 255 0
-5.1541800 1.0437500 -11.9431000 255 255 0
-5.1658600 0.4717660 -11.8183000 255 255 0
-5.1728700 0.3242720 -11.7954000 255 255 0
-5.2035200 0.1571420 -11.8173000 255 255 0
-5.2323700 0.0818060 -11.8560000 255 255 0
-5.1324300 1.0445100 -11.9022000 255 255 0
-5.1292800 1.0158000 -11.8847000 255 255 0
-5.1190600 0.9120150 -11.8394000 255 255 0
-5.1236700 0.8872720 -11.8452000 255 255 0
-5.1300500 0.7636720 -11.8239000 255 255 0
-5.1470900 0.6173910 -11.8196000 255 255 0
-5.1631200 0.4471970 -11.8149000 255 255 0
-5.1764200 0.3009210 -11.8035000 255 255 0
-5.2095700 0.1339820 -11.8300000 255 255 0
-5.0773600 1.0511800 -11.7944000 255 255 0
-5.5455400 0.8374230 -12.7250000 255 255 0
-5.4976900 0.8263530 -12.6216000 255 255 0
-5.1181700 0.8876680 -11.8395000 255 255 0
-5.1260300 0.7385960 -11.8181000 255 255 0
-5.1469100 0.5933190 -11.8209000 255 255 0
-5.1801000 0.2775580 -11.8119000 255 255 0
-5.2156400 0.1107670 -11.8426000 255 255 0
-5.1537400 1.0594400 -11.9651000 255 255 0
-5.1244400 1.0165600 -11.8927000 255 255 0
-5.1182000 1.0158700 -11.8774000 255 255 0
-5.1293000 1.0024200 -11.8980000 255 255 0
-5.1170700 0.8632690 -11.8391000 255 255 0
-5.1269000 0.7147820 -11.8214000 255 255 0
-5.1470200 0.5693100 -11.8227000 255 255 0
-5.1640600 0.4233670 -11.8183000 255 255 0
-5.1833000 0.2540820 -11.8193000 255 255 0
-5.2205300 0.0873410 -11.8531000 255 255 0
-5.5441700 0.9583270 -12.7647000 255 255 0
-5.1491300 0.5457350 -11.8283000 255 255 0
-5.1624800 0.3990450 -11.8169000 255 255 0
-5.1848900 0.2303190 -11.8238000 255 255 0
-5.1099700 1.0423400 -11.8828000 255 255 0
-5.1095800 0.9890580 -11.8630000 255 255 0
-5.1156100 0.8387780 -11.8381000 255 255 0
-5.1245000 0.6901490 -11.8186000 255 255 0
-5.1463500 0.5210910 -11.8248000 255 255 0
-5.1592200 0.3744240 -11.8125000 255 255 0
-5.1914800 0.2073100 -11.8375000 255 255 0
-5.1189400 1.0403600 -11.9072000 255 255 0
-5.4818900 0.8684270 -12.6259000 255 255 0
-5.1092100 0.9647930 -11.8640000 255 255 0
-5.1119600 0.8137040 -11.8330000 255 255 0
-5.1224000 0.6656100 -11.8164000 255 255 0
-5.1552300 0.3496960 -11.8068000 255 255 0
-5.2301200 0.0153050 -11.8768000 255 255 0
-5.2333100 -0.0104800 -11.8720000 255 255 0
-5.1083400 1.0934000 -11.9004000 255 255 0
-5.1215000 0.6413720 -11.8164000 255 255 0
-5.1420000 0.4961410 -11.8184000 255 255 0
-5.1842800 0.1821760 -11.8258000 255 255 0
-5.2161000 0.0503570 -11.8618000 255 255 0
-5.1024400 1.0672700 -11.8911000 255 255 0
-5.0930300 1.0407500 -11.8642000 255 255 0
-5.0942200 0.9362180 -11.8377000 255 255 0
-5.1057600 0.7879820 -11.8231000 255 255 0
-5.1198600 0.6169670 -11.8150000 255 255 0
-5.1414100 0.4719990 -11.8189000 255 255 0
-5.1549200 0.3256530 -11.8078000 255 255 0
-5.1801100 0.1575440 -11.8197000 255 255 0
-5.2065000 0.0815200 -11.8548000 255 255 0
-5.1168100 1.0587200 -11.9266000 255 255 0
-5.0963700 1.0144500 -11.8737000 255 255 0
-5.4941600 0.8608700 -12.6681000 255 255 0
-5.0993500 0.9969000 -11.8716000 255 255 0
-5.0902100 0.9109650 -11.8319000 255 255 0
-5.1012400 0.7627550 -11.8164000 255 255 0
-5.1407200 0.4478390 -11.8192000 255 255 0
-5.1546100 0.3016110 -11.8088000 255 255 0
-5.1853500 0.1342700 -11.8309000 255 255 0
-5.0565300 1.0480200 -11.8009000 255 255 0
-5.0862000 0.8857490 -11.8261000 255 255 0
-5.0964900 0.7375050 -11.8092000 255 255 0
-5.1195700 0.5928840 -11.8161000 255 255 0
-5.1444200 0.4245470 -11.8277000 255 255 0
-5.1598000 0.2784960 -11.8200000 255 255 0
-5.1922600 0.1111750 -11.8452000 255 255 0
-5.4994400 0.8657180 -12.7009000 255 255 0
-5.1022200 1.0036400 -11.8932000 255 255 0
-5.0998400 0.7143450 -11.8171000 255 255 0
-5.1192800 0.5688000 -11.8172000 255 255 0
-5.1442700 0.4004770 -11.8290000 255 255 0
-5.1622400 0.2548820 -11.8261000 255 255 0
-5.1986400 0.0879450 -11.8585000 255 255 0
-5.0763700 1.0491400 -11.8604000 255 255 0
-5.0836500 0.8609780 -11.8230000 255 255 0
-5.1232700 0.5456600 -11.8262000 255 255 0
-5.1441500 0.3764140 -11.8304000 255 255 0
-5.1674600 0.2316840 -11.8373000 255 255 0
-5.0695500 0.9845430 -11.8345000 255 255 0
-5.4945900 0.7928090 -12.6814000 255 255 0
-5.0800300 0.8359270 -11.8179000 255 255 0
-5.0989700 0.6901040 -11.8172000 255 255 0
-5.1247700 0.5219420 -11.8307000 255 255 0
-5.1675500 0.2076440 -11.8390000 255 255 0
-5.2175600 -0.0196660 -11.8896000 255 255 0
-5.4656300 1.0991900 -12.7054000 255 255 0
-5.0617400 1.0672500 -11.8430000 255 255 0
-5.0680900 0.9600230 -11.8335000 255 255 0
-5.0785800 0.8115000 -11.8169000 255 255 0
-5.0976800 0.6657670 -11.8164000 255 255 0
-5.1216900 0.4972450 -11.8266000 255 255 0
-5.1438300 0.3523130 -11.8314000 255 255 0
-5.1609400 0.1825930 -11.8284000 255 255 0
-5.2055200 0.0138280 -11.8782000 255 255 0
-5.5069900 0.7849940 -12.7241000 255 255 0
-5.0974100 0.6416810 -11.8176000 255 255 0
-5.1210600 0.4730770 -11.8270000 255 255 0
-5.1369200 0.3270380 -11.8202000 255 255 0
-5.1610300 0.1585770 -11.8301000 255 255 0
-5.1908000 0.0495370 -11.8617000 255 255 0
-5.0556400 1.0976100 -11.8523000 255 255 0
-5.0453200 1.0811200 -11.8286000 255 255 0
-5.0174500 1.0523700 -11.7600000 255 255 0
-5.0894900 0.9531000 -11.8853000 255 255 0
-5.0644600 0.9348700 -11.8284000 255 255 0
-5.0774900 0.7871820 -11.8166000 255 255 0
-5.0996600 0.6181880 -11.8234000 255 255 0
-5.1347300 0.3026420 -11.8177000 255 255 0
-5.0446500 1.0386400 -11.8243000 255 255 0
-5.0451000 1.0343800 -11.8211000 255 255 0
-5.0583000 0.9090130 -11.8185000 255 255 0
-5.0719700 0.7617030 -11.8079000 255 255 0
-5.1000500 0.5942420 -11.8258000 255 255 0
-5.1204900 0.4489240 -11.8276000 255 255 0
-5.1379400 0.2791780 -11.8253000 255 255 0
-5.1610400 0.1345450 -11.8317000 255 255 0
-5.1705700 0.1118140 -11.8508000 255 255 0
-5.0519300 1.1278400 -11.8679000 255 255 0
-5.0513800 1.0295600 -11.8395000 255 255 0
-5.0517000 1.0092500 -11.8375000 255 255 0
-5.0717100 0.7376350 -11.8091000 255 255 0
-5.1219600 0.4251760 -11.8319000 255 255 0
-5.1431300 0.2560070 -11.8365000 255 255 0
-5.1776600 0.0886720 -11.8655000 255 255 0
-5.0535200 1.1158400 -11.8716000 255 255 0
-5.0543200 0.8838350 -11.8127000 255 255 0
-5.0747800 0.7144100 -11.8165000 255 255 0
-5.0946900 0.5689950 -11.8174000 255 255 0
-5.1004600 0.5462540 -11.8299000 255 255 0
-5.1236300 0.4014520 -11.8367000 255 255 0
-5.1463600 0.2324740 -11.8441000 255 255 0
-5.0394400 1.1468700 -11.8555000 255 255 0
-5.0385000 1.0461000 -11.8278000 255 255 0
-5.0403100 1.0073500 -11.8244000 255 255 0
-5.0539600 0.8597120 -11.8137000 255 255 0
-5.0736800 0.6901140 -11.8161000 255 255 0
-5.1040300 0.5229810 -11.8382000 255 255 0
-5.1239000 0.3774480 -11.8388000 255 255 0
-5.1471000 0.2085220 -11.8470000 255 255 0
-5.1542500 0.1259880 -11.8354000 255 255 0
-5.1736700 0.0640470 -11.8597000 255 255 0
-5.0377700 1.1669900 -11.8691000 255 255 0
-5.0385300 1.0624800 -11.8428000 255 255 0
-5.0362300 0.9820390 -11.8184000 255 255 0
-5.0478300 0.8339880 -11.8039000 255 255 0
-5.1218800 0.3530160 -11.8366000 255 255 0
-4.9981700 1.2834000 -11.8173000 255 255 0
-5.0465000 1.2133500 -11.9003000 255 255 0
-5.0452500 1.1440400 -11.8817000 255 255 0
-5.0287000 1.0814500 -11.8284000 255 255 0
-5.0329900 1.0705700 -11.8351000 255 255 0
-5.0472300 0.8098290 -11.8045000 255 255 0
-5.0722600 0.6657480 -11.8151000 255 255 0
-5.1025300 0.4985980 -11.8370000 255 255 0
-5.1198200 0.3285940 -11.8344000 255 255 0
-5.1449700 0.1841250 -11.8446000 255 255 0
-5.1825300 0.0109470 -11.8825000 255 255 0
-5.4251600 1.1182600 -12.6881000 255 255 0
-4.9883500 1.2524400 -11.7986000 255 255 0
-5.0192400 1.1048600 -11.8244000 255 255 0
-5.0326200 0.9569100 -11.8133000 255 255 0
-5.0519700 0.7871090 -11.8151000 255 255 0
-5.0704900 0.6413090 -11.8135000 255 255 0
-5.1005600 0.4741300 -11.8350000 255 255 0
-5.1435700 0.1598540 -11.8436000 255 255 0
-5.1653500 0.0488500 -11.8614000 255 255 0
-5.0191000 1.1043900 -11.8285000 255 255 0
-5.0311700 0.9324560 -11.8123000 255 255 0
-5.0757600 0.6185450 -11.8250000 255 255 0
-5.1002300 0.4500100 -11.8360000 255 255 0
-5.1136500 0.3034700 -11.8245000 255 255 0
-5.1368700 0.1348400 -11.8327000 255 255 0
-5.1603900 0.0990590 -11.8735000 255 255 0
-5.1634100 0.0734970 -11.8685000 255 255 0
-5.0889400 0.0318580 -11.7029000 255 255 0
-4.9693000 1.2181700 -11.7601000 255 255 0
-5.0259800 1.1615500 -11.8677000 255 255 0
-5.0184000 1.1130100 -11.8356000 255 255 0
-5.0188600 1.0388500 -11.8216000 255 255 0
-5.0225000 1.0139900 -11.8184000 255 255 0
-5.0300800 0.9081180 -11.8119000 255 255 0
-5.0485900 0.7621980 -11.8104000 255 255 0
-5.0819500 0.5959390 -11.8383000 255 255 0
-5.1012900 0.4261670 -11.8396000 255 255 0
-5.1197200 0.2804810 -11.8374000 255 255 0
-5.1367500 0.1107880 -11.8341000 255 255 0
-4.9827200 1.1959200 -11.7913000 255 255 0
-5.0083000 1.1346600 -11.8270000 255 255 0
-5.0079900 1.0686900 -11.8111000 255 255 0
-5.0469000 0.7377520 -11.8089000 255 255 0
-5.0816100 0.5717960 -11.8393000 255 255 0
-5.1029600 0.4024270 -11.8443000 255 255 0
-5.1220200 0.2568110 -11.8433000 255 255 0
-5.0045000 1.1156300 -11.8247000 255 255 0
-5.0084700 1.0906400 -11.8221000 255 255 0
-5.0123500 1.0304900 -11.8166000 255 255 0
-5.0166600 1.0071400 -11.8216000 255 255 0
-5.0153900 0.8798620 -11.7859000 255 255 0
-5.0498700 0.7145100 -11.8162000 255 255 0
-5.0849000 0.5484610 -11.8471000 255 255 0
-5.1036300 0.3784830 -11.8472000 255 255 0
-5.1264200 0.2334540 -11.8530000 255 255 0
-5.0032200 1.1585400 -11.8350000 255 255 0
-4.9973200 1.1427800 -11.8211000 255 255 0
-5.0095200 1.0055700 -11.8130000 255 255 0
-5.0284500 0.8596200 -11.8123000 255 255 0
-5.0494000 0.6903750 -11.8170000 255 255 0
-5.0845700 0.5243040 -11.8481000 255 255 0
-5.1297800 0.2098930 -11.8609000 255 255 0
-4.9982900 1.1866500 -11.8431000 255 255 0
-4.9949800 1.1666100 -11.8267000 255 255 0
-5.0277800 0.8354220 -11.8127000 255 255 0
-5.0459700 0.6655140 -11.8122000 255 255 0
-5.0818100 0.4996320 -11.8446000 255 255 0
-5.1021000 0.3541230 -11.8459000 255 255 0
-5.1313100 0.1860210 -11.8653000 255 255 0
-5.0104700 1.2989700 -11.9033000 255 255 0
-4.9892600 1.1272500 -11.8128000 255 255 0
-5.0065900 0.9806460 -11.8091000 255 255 0
-5.0219600 0.8098090 -11.8034000 255 255 0
-5.0993500 0.3295560 -11.8424000 255 255 0
-5.1255100 0.1610530 -11.8561000 255 255 0
-5.1827300 -0.0122260 -11.9300000 255 255 0
-4.9983600 0.9541360 -11.7953000 255 255 0
-5.0222800 0.7859070 -11.8057000 255 255 0
-5.0457200 0.6414520 -11.8134000 255 255 0
-5.0802700 0.4752360 -11.8434000 255 255 0
-5.0972200 0.3051190 -11.8400000 255 255 0
-5.1252100 0.1369210 -11.8571000 255 255 0
-5.1716200 0.0436990 -11.9308000 255 255 0
-5.1398000 0.0482530 -11.8609000 255 255 0
-4.9650500 1.2543600 -11.8077000 255 255 0
-4.9951400 0.9291960 -11.7909000 255 255 0
-5.0522200 0.6189870 -11.8273000 255 255 0
-5.0609100 0.5969670 -11.8453000 255 255 0
-5.0799400 0.4510990 -11.8444000 255 255 0
-5.1001800 0.2815690 -11.8472000 255 255 0
-5.1539600 0.0820180 -11.9086000 255 255 0
-4.9818000 1.0469600 -11.7974000 255 255 0
-5.0223600 0.7619360 -11.8076000 255 255 0
-5.0678200 0.5744600 -11.8600000 255 255 0
-5.0806100 0.4271600 -11.8472000 255 255 0
-5.1036200 0.2580700 -11.8552000 255 255 0
-5.1249200 0.1127890 -11.8581000 255 255 0
-5.1380800 0.0904560 -11.8842000 255 255 0
-4.9451500 1.2197100 -11.7672000 255 255 0
-4.9730300 1.0753100 -11.7908000 255 255 0
-4.9912200 0.9040770 -11.7851000 255 255 0
-5.0253000 0.7387080 -11.8148000 255 255 0
-5.0674800 0.5502700 -11.8610000 255 255 0
-5.0822700 0.4034050 -11.8520000 255 255 0
-5.1044900 0.2341190 -11.8584000 255 255 0
-4.9455900 1.1927100 -11.7705000 255 255 0
-4.9739000 1.0969300 -11.8025000 255 255 0
-4.9834500 1.0292800 -11.8087000 255 255 0
-5.0214600 0.7137110 -11.8092000 255 255 0
-5.0833300 0.3795200 -11.8556000 255 255 0
-5.1092700 0.2107750 -11.8689000 255 255 0
-4.9552600 1.1690500 -11.7938000 255 255 0
-4.9668400 1.1462400 -11.8092000 255 255 0
-4.9818500 1.0047600 -11.8074000 255 255 0
-4.9790400 0.8765950 -11.7637000 255 255 0
-4.9904900 0.8559710 -11.7871000 255 255 0
-5.0213100 0.6896750 -11.8106000 255 255 0
-5.0635200 0.5252900 -11.8552000 255 255 0
-5.0813800 0.3550630 -11.8535000 255 255 0
-5.1164900 0.1877560 -11.8840000 255 255 0
-4.9494500 1.2024000 -11.7960000 255 255 0
-4.9561300 1.1757200 -11.7988000 255 255 0
-4.9954600 0.8334180 -11.7983000 255 255 0
-5.0211200 0.6656320 -11.8119000 255 255 0
-5.0602900 0.5005000 -11.8507000 255 255 0
-5.0819700 0.3310820 -11.8563000 255 255 0
-4.9473400 1.3130000 -11.8242000 255 255 0
-4.9344600 1.2345800 -11.7773000 255 255 0
-4.9603900 1.1259500 -11.8049000 255 255 0
-4.9741700 0.9783760 -11.7945000 255 255 0
-4.9943300 0.8091340 -11.7979000 255 255 0
-5.0256400 0.6427280 -11.8221000 255 255 0
-5.0599600 0.4763440 -11.8518000 255 255 0
-5.0834700 0.3072530 -11.8607000 255 255 0
-5.1074100 0.1622560 -11.8686000 255 255 0
-5.1158900 0.1393560 -11.8861000 255 255 0
-5.1493400 0.0169910 -11.9259000 255 255 0
-5.1613000 -0.0166280 -11.9375000 255 255 0
-4.9654300 1.2926600 -11.8659000 255 255 0
-4.9440400 1.2503300 -11.8057000 255 255 0
-4.9674200 0.9523430 -11.7833000 255 255 0
-4.9936700 0.7849810 -11.7983000 255 255 0
-5.0294000 0.6196000 -11.8309000 255 255 0
-5.0596300 0.4521890 -11.8528000 255 255 0
-5.1470400 0.0421140 -11.9324000 255 255 0
-4.9486900 1.0980300 -11.7842000 255 255 0
-5.0290500 0.5954770 -11.8319000 255 255 0
-5.0585800 0.4278900 -11.8524000 255 255 0
-5.0842500 0.2832840 -11.8638000 255 255 0
-5.1148700 0.1150540 -11.8857000 255 255 0
-4.9417200 1.2562800 -11.8169000 255 255 0
-4.9447800 1.0727800 -11.7785000 255 255 0
-4.9528900 1.0494100 -11.7885000 255 255 0
-4.9579200 1.0316600 -11.7969000 255 255 0
-4.9617500 0.9266940 -11.7742000 255 255 0
-4.9958400 0.7615890 -11.8041000 255 255 0
-5.0615500 0.4043830 -11.8597000 255 255 0
-5.0846700 0.2592450 -11.8661000 255 255 0
-5.1140500 0.0907880 -11.8857000 255 255 0
-4.9297000 1.2245200 -11.7932000 255 255 0
-4.9546900 0.9006830 -11.7625000 255 255 0
-4.9969900 0.7379080 -11.8080000 255 255 0
-5.0215400 0.5697150 -11.8194000 255 255 0
-5.0352700 0.5487800 -11.8470000 255 255 0
-5.0852700 0.2352290 -11.8689000 255 255 0
-5.1069700 0.0657140 -11.8740000 255 255 0
-4.9355200 1.3273800 -11.8380000 255 255 0
-4.9292200 1.1957400 -11.7872000 255 255 0
-4.9447100 1.1217900 -11.8032000 255 255 0
-4.9408800 1.0475800 -11.7728000 255 255 0
-4.9475400 1.0257900 -11.7873000 255 255 0
-4.9544900 0.8767360 -11.7638000 255 255 0
-4.9942700 0.7132150 -11.8045000 255 255 0
-5.0388400 0.5254860 -11.8554000 255 255 0
-5.0627600 0.3805130 -11.8636000 255 255 0
-5.0852700 0.2111100 -11.8705000 255 255 0
-4.9668300 1.3868200 -11.9220000 255 255 0
-4.9281200 1.1714000 -11.7868000 255 255 0
-4.9410000 1.1465600 -11.8061000 255 255 0
-4.9499900 1.0026100 -11.7937000 255 255 0
-4.9624200 0.8551200 -11.7806000 255 255 0
-4.9943900 0.6892650 -11.8064000 255 255 0
-5.0621400 0.3562860 -11.8640000 255 255 0
-5.0946900 0.1884330 -11.8898000 255 255 0
-4.9383400 1.3479900 -11.8623000 255 255 0
-4.9187500 1.2060400 -11.7834000 255 255 0
-4.9363100 1.1715900 -11.8124000 255 255 0
-4.9361800 1.1502200 -11.8041000 255 255 0
-4.9709000 0.8335830 -11.7985000 255 255 0
-4.9961800 0.6657250 -11.8115000 255 255 0
-5.0373000 0.5010590 -11.8542000 255 255 0
-5.0614400 0.3320470 -11.8643000 255 255 0
-5.0980400 0.1647650 -11.8976000 255 255 0
-4.9091800 1.2346100 -11.7750000 255 255 0
-4.9432700 0.9765510 -11.7825000 255 255 0
-4.9697800 0.8093010 -11.7981000 255 255 0
-4.9961900 0.6417320 -11.8132000 255 255 0
-5.0396200 0.4774540 -11.8602000 255 255 0
-5.0673400 0.3089830 -11.8771000 255 255 0
-5.0977400 0.1405370 -11.8987000 255 255 0
-5.1340600 0.0072200 -11.9450000 255 255 0
