-1.13025 -3.8615 -11.8306
-1.2026 -3.74878 -11.4747
-1.33089 -3.81487 -11.6653
-1.41897 -3.76472 -11.4994
-1.52055 -3.75516 -11.4567
-1.63447 -3.77561 -11.5046
-1.7368 -3.76876 -11.4683
-1.84403 -3.77301 -11.4648
-1.97136 -3.81601 -11.5778
-2.08903 -3.83715 -11.6233
-1.14266 -3.81434 -12.0434
-2.18688 -3.72665 -11.6153
-1.06735 -3.48716 -11.3559
-2.28589 -3.62336 -11.6289
-1.05595 -3.38237 -11.3698
-2.23974 -3.46384 -11.4772
-1.14543 -3.27839 -11.3756
-2.21109 -3.33739 -11.4269
-1.1314 -3.1818 -11.4173
-2.19151 -3.22925 -11.4362
-2.60955 -3.67188 -12.9807
-1.21839 -3.08553 -11.4507
-2.28116 -3.1331 -11.4682
-1.20951 -3.01437 -11.5928
-2.27923 -3.05607 -11.5951
-1.19222 -2.92823 -11.6838
-2.23819 -2.93005 -11.5367
-1.10591 -2.94677 -12.2242
-1.21299 -2.94051 -12.1879
-2.20581 -2.81952 -11.5351
-0.969417 -2.85128 -12.3121
-1.0795 -2.85089 -12.3013
-2.16929 -2.70746 -11.5249
-0.82331 -2.73688 -12.3178
-0.933376 -2.73688 -12.3099
-2.04553 -2.61939 -11.6369
-2.14145 -2.60962 -11.5748
-0.787058 -2.63057 -12.3508
-1.9975 -2.49945 -11.5881
-0.635072 -2.51438 -12.3422
-0.746146 -2.51839 -12.3558
-1.96443 -2.40181 -11.6407
-0.481364 -2.40043 -12.3397
-0.591046 -2.40043 -12.335
-1.92543 -2.30003 -11.6749
-0.216322 -2.29116 -12.3601
-0.32584 -2.28995 -12.3511
-0.435521 -2.29036 -12.35
-1.79201 -2.21332 -11.8068
-1.8961 -2.21258 -11.7865
0.0514348 -2.18125 -12.3704
-0.0581811 -2.18127 -12.3705
-0.167868 -2.18221 -12.3748
-1.62759 -2.09193 -11.7518
-1.74013 -2.10215 -11.7942
0.16766 -2.17947 -12.3593
0.0581485 -2.17994 -12.3629
-0.0514262 -2.18102 -12.3691
0.102374 -2.06604 -12.3457
-1.57165 -1.97924 -11.7226
0.225926 -2.07153 -12.3769
-0.0985698 -1.98933 -11.8873
0.045527 -1.88821 -11.9216
-1.41068 -1.8683 -11.7113
-1.52782 -1.88522 -11.8044
0.281317 -1.96408 -12.3975
-0.0453802 -1.88224 -11.8839
0.0986446 -1.75085 -11.7148
-1.25829 -1.77265 -11.7942
-1.35777 -1.76675 -11.7434
0.32222 -1.79214 -11.9871
-0.0985337 -1.74893 -11.702
0.0518474 -1.64224 -11.685
-1.19424 -1.6595 -11.7474
0.257437 -1.64468 -11.6997
-0.0517536 -1.63936 -11.6645
0.111233 -1.54068 -11.7021
-1.13813 -1.56129 -11.8044
0.300338 -1.53852 -11.6823
-0.111249 -1.54097 -11.7043
0.0703768 -1.43812 -11.7123
-0.864824 -1.4535 -11.8062
-0.967831 -1.45236 -11.7889
-1.07977 -1.46364 -11.8714
0.23774 -1.43325 -11.6705
-0.0702738 -1.43613 -11.6961
0.0323518 -1.33585 -11.7246
-0.590957 -1.34881 -11.8236
-0.696664 -1.35247 -11.85
-0.799239 -1.34998 -11.8216
0.275611 -1.33126 -11.6811
-0.0323276 -1.33508 -11.7178
-0.00287751 -1.23682 -11.7675
-0.31408 -1.24262 -11.8186
-0.416985 -1.24029 -11.7932
-0.522659 -1.24556 -11.8391
0.311205 -1.23124 -11.7103
-0.100185 -1.23451 -11.7451
-0.0354764 -1.13724 -11.8107
-0.139019 -1.13724 -11.8099
-0.242709 -1.13799 -11.816
0.242059 -1.13493 -11.7843
0.138366 -1.13188 -11.7542
0.0353146 -1.13188 -11.7549
-0.0677475 -1.13196 -11.7557
