1.218500 -0.499040 -6.457000
1.195800 -0.504110 -6.402800
1.193600 -0.507150 -6.397300
1.176500 -0.521450 -6.356800
1.164600 -0.547620 -6.327700
1.312900 -0.573420 -6.685900
1.161100 -0.553790 -6.319900
1.307100 -0.585360 -6.671800
1.153200 -0.576710 -6.301400
1.153400 -0.581520 -6.301100
1.150600 -0.634420 -6.296200
1.153300 -0.693110 -6.303800
1.198400 -0.501320 -6.407900
1.206100 -0.504110 -6.426500
1.315900 -0.573820 -6.691900
1.159000 -0.567760 -6.312600
1.156100 -0.572220 -6.306900
1.153600 -0.586300 -6.300700
1.151000 -0.600360 -6.294500
1.151100 -0.605170 -6.294400
1.153600 -0.678460 -6.302700
1.153600 -0.683290 -6.302700
1.153500 -0.688170 -6.303100
1.216200 -0.501770 -6.449400
1.191100 -0.507790 -6.388700
1.175200 -0.524700 -6.350700
1.311300 -0.570950 -6.678700
1.163700 -0.551830 -6.322600
1.321800 -0.585430 -6.705200
1.151300 -0.609960 -6.294100
1.151200 -0.619670 -6.294400
1.151300 -0.624500 -6.294400
1.151300 -0.629320 -6.294300
1.188800 -0.509050 -6.380700
1.174500 -0.529490 -6.346100
1.162200 -0.558300 -6.317200
1.154200 -0.590930 -6.299100
1.154300 -0.673330 -6.300700
1.300600 -0.576370 -6.650200
1.154500 -0.668410 -6.300100
1.216400 -0.502210 -6.445100
1.187800 -0.512940 -6.375300
1.173800 -0.534240 -6.341500
1.302300 -0.578560 -6.652700
1.331700 -0.595930 -6.723700
1.155100 -0.634290 -6.298100
1.155100 -0.663360 -6.298600
1.299000 -0.577650 -6.642200
1.163100 -0.562890 -6.315300
1.160400 -0.572150 -6.309100
1.157700 -0.576560 -6.303000
1.155200 -0.595450 -6.296800
1.186300 -0.516000 -6.369000
1.173100 -0.539150 -6.337000
1.272700 -0.572400 -6.577500
1.155600 -0.600180 -6.296000
1.202100 -0.503810 -6.405700
1.330500 -0.592860 -6.716200
1.158600 -0.581140 -6.301100
1.158600 -0.585970 -6.301000
1.155800 -0.614660 -6.295900
1.155900 -0.619450 -6.295600
1.155800 -0.629190 -6.296200
1.156100 -0.638790 -6.295800
1.156100 -0.653320 -6.296000
1.158700 -0.678070 -6.302900
1.223300 -0.502510 -6.454100
1.185200 -0.519890 -6.363600
1.171900 -0.542760 -6.331300
1.312700 -0.574780 -6.670200
1.328500 -0.591020 -6.709300
1.156100 -0.604840 -6.294800
1.156300 -0.609620 -6.294400
1.156200 -0.624210 -6.295100
1.156200 -0.648440 -6.295700
1.156100 -0.658140 -6.296000
1.159000 -0.673110 -6.302000
1.158700 -0.682900 -6.302900
1.158900 -0.687680 -6.302600
1.158900 -0.692510 -6.302600
1.221300 -0.495210 -6.448900
1.204400 -0.506610 -6.407100
1.167000 -0.558070 -6.318300
1.156400 -0.643500 -6.295000
1.222400 -0.502710 -6.448800
1.200100 -0.506840 -6.396100
1.183800 -0.522890 -6.357300
1.171900 -0.548970 -6.328100
1.164700 -0.567240 -6.311400
1.159500 -0.590550 -6.299100
1.159600 -0.668050 -6.300500
1.223100 -0.500550 -6.449800
1.212100 -0.505910 -6.422800
1.217100 -0.507860 -6.435200
1.198000 -0.508450 -6.388500
1.182700 -0.526720 -6.351800
1.316800 -0.573530 -6.675300
1.311700 -0.582880 -6.662900
1.313600 -0.585120 -6.668600
1.167500 -0.562770 -6.317100
1.162300 -0.576380 -6.304500
1.159800 -0.595270 -6.298300
1.219100 -0.505300 -6.438900
1.211900 -0.505760 -6.421600
1.321300 -0.571110 -6.684200
1.319800 -0.573930 -6.681300
1.171300 -0.553960 -6.323700
1.196400 -0.511030 -6.381700
1.181700 -0.530710 -6.346400
1.173600 -0.548820 -6.327500
1.315100 -0.585250 -6.668100
1.160500 -0.599900 -6.296700
1.160600 -0.633780 -6.297300
1.227700 -0.505550 -6.455000
1.239500 -0.512770 -6.483500
1.323300 -0.573500 -6.686800
1.329200 -0.585170 -6.700100
1.170700 -0.559000 -6.319300
1.166100 -0.571620 -6.307900
1.160800 -0.614320 -6.296300
1.160800 -0.628850 -6.296500
1.160600 -0.662830 -6.297800
1.209000 -0.501060 -6.408800
1.205000 -0.506350 -6.398900
1.194700 -0.513610 -6.375000
1.180900 -0.535390 -6.341700
1.335300 -0.596520 -6.713300
1.163600 -0.580840 -6.301600
1.163700 -0.585640 -6.301400
1.160900 -0.604590 -6.295800
1.161000 -0.619110 -6.296000
1.161000 -0.623950 -6.296000
1.161000 -0.638500 -6.296500
1.161200 -0.648090 -6.296000
1.161200 -0.657780 -6.296300
1.163700 -0.677720 -6.303300
1.163800 -0.682540 -6.303300
1.163700 -0.692250 -6.303700
1.236800 -0.502380 -6.473600
1.235400 -0.509400 -6.470300
1.306400 -0.578850 -6.642500
1.338200 -0.597090 -6.719400
1.164100 -0.590370 -6.300600
1.161500 -0.609250 -6.294500
1.161300 -0.652910 -6.296000
1.164000 -0.667910 -6.302300
1.164000 -0.672760 -6.302400
1.164100 -0.687260 -6.302600
1.193500 -0.517080 -6.369200
1.179900 -0.539490 -6.336500
1.324600 -0.591210 -6.684500
1.166900 -0.576210 -6.306000
1.161900 -0.643010 -6.294300
1.225100 -0.505710 -6.442500
1.213400 -0.507230 -6.415600
1.334200 -0.593260 -6.705600
1.164700 -0.594990 -6.299000
1.230100 -0.503030 -6.454100
1.208500 -0.504440 -6.402200
1.212700 -0.505590 -6.411300
1.192100 -0.520420 -6.363200
1.179000 -0.543830 -6.331500
1.175500 -0.553080 -6.322800
1.319000 -0.586290 -6.668300
1.170200 -0.566760 -6.310600
1.165100 -0.599720 -6.298200
1.206900 -0.507020 -6.395400
1.191100 -0.524470 -6.357900
1.173200 -0.562250 -6.315900
1.170700 -0.571460 -6.309500
1.343500 -0.604810 -6.724700
1.167900 -0.580740 -6.303600
1.165200 -0.662640 -6.299300
1.178600 -0.549240 -6.327400
1.165500 -0.638330 -6.298100
1.168400 -0.677480 -6.304500
1.211100 -0.506490 -6.402300
1.204800 -0.508630 -6.387800
1.189800 -0.527770 -6.351900
1.168500 -0.585410 -6.302400
1.165900 -0.604280 -6.296300
1.165900 -0.613980 -6.296600
1.165900 -0.618800 -6.296500
1.166000 -0.623610 -6.296400
1.168500 -0.682300 -6.304500
1.218100 -0.507630 -6.419000
1.238400 -0.511250 -6.467300
1.178200 -0.554630 -6.323400
1.327200 -0.590140 -6.681800
1.171500 -0.576050 -6.307600
1.169000 -0.590090 -6.301300
1.166100 -0.609050 -6.295900
1.166400 -0.628340 -6.295700
1.166300 -0.642890 -6.296200
1.166400 -0.647680 -6.296000
1.166400 -0.652530 -6.296200
1.169000 -0.672410 -6.302800
1.230900 -0.507200 -6.447300
1.202900 -0.510720 -6.380600
1.188900 -0.532070 -6.346800
1.326300 -0.574850 -6.676900
1.177100 -0.557430 -6.319000
1.334700 -0.587700 -6.696700
1.174500 -0.566670 -6.312700
1.342700 -0.601070 -6.716800
1.169300 -0.594810 -6.300500
1.166700 -0.633050 -6.294900
1.166500 -0.657320 -6.295900
1.169200 -0.667500 -6.302300
1.169100 -0.686920 -6.303100
1.169100 -0.691750 -6.303100
1.221900 -0.506750 -6.424200
1.260900 -0.530660 -6.518100
1.331800 -0.576480 -6.689400
1.177600 -0.559620 -6.319000
1.326500 -0.591620 -6.675800
1.340500 -0.599420 -6.710000
1.172300 -0.580640 -6.305700
1.214500 -0.503620 -6.405500
1.227500 -0.508000 -6.436300
1.201400 -0.513540 -6.374100
1.187900 -0.536140 -6.341500
1.329900 -0.574430 -6.682400
1.169800 -0.662450 -6.300800
1.242000 -0.498940 -6.469300
1.245900 -0.513970 -6.479400
1.319900 -0.569940 -6.656800
1.330400 -0.582110 -6.682300
1.178000 -0.562030 -6.317000
1.175300 -0.571260 -6.310800
1.170300 -0.599330 -6.298200
1.172800 -0.677370 -6.306500
1.237100 -0.503350 -6.456100
1.200400 -0.517610 -6.368800
1.259900 -0.527420 -6.510600
1.187000 -0.540480 -6.336500
1.338900 -0.581190 -6.701200
1.175800 -0.575960 -6.309700
1.347600 -0.609470 -6.722400
1.173100 -0.585230 -6.303900
1.241100 -0.503210 -6.464100
1.219500 -0.504280 -6.411600
1.228500 -0.506460 -6.433800
1.217100 -0.507080 -6.406100
1.199200 -0.521350 -6.363200
1.315600 -0.566660 -6.643400
1.331300 -0.591270 -6.681600
1.173500 -0.589910 -6.302700
1.171000 -0.603940 -6.296600
1.170800 -0.613690 -6.297300
1.170800 -0.618520 -6.297300
1.173600 -0.672240 -6.304500
1.173400 -0.681970 -6.305000
1.173400 -0.691660 -6.305300
1.216300 -0.507040 -6.403800
1.186100 -0.544820 -6.331500
1.181700 -0.557260 -6.320400
1.179100 -0.566520 -6.314300
1.171000 -0.608770 -6.296600
1.171100 -0.623270 -6.296800
1.171000 -0.637800 -6.297100
1.171100 -0.642620 -6.297100
1.171300 -0.657070 -6.297000
1.173700 -0.686730 -6.304600
1.237000 -0.507340 -6.450600
1.245800 -0.509530 -6.471300
1.213800 -0.507680 -6.395200
1.198000 -0.524900 -6.357400
1.335600 -0.581530 -6.687300
1.176800 -0.580490 -6.307300
1.171400 -0.628000 -6.296000
1.171400 -0.652190 -6.296600
1.233600 -0.510200 -6.440900
1.185600 -0.549990 -6.327300
1.347400 -0.604890 -6.714000
1.174500 -0.594430 -6.300400
1.171600 -0.647270 -6.295900
1.174300 -0.667140 -6.302600
1.211500 -0.508610 -6.386900
1.197100 -0.529160 -6.352300
1.334300 -0.590640 -6.681300
1.179900 -0.571100 -6.312300
1.172200 -0.632540 -6.294100
1.206800 -0.514460 -6.374100
1.185100 -0.555290 -6.323200
1.333600 -0.592650 -6.678600
1.177600 -0.585060 -6.305400
1.175200 -0.599050 -6.298900
1.210200 -0.512090 -6.381000
1.195800 -0.532700 -6.346500
1.332100 -0.577010 -6.673200
1.183200 -0.561650 -6.316900
1.351700 -0.614120 -6.720200
1.178000 -0.691470 -6.306800
1.242500 -0.509700 -6.456300
1.208900 -0.515420 -6.375000
1.327500 -0.574150 -6.660000
1.181000 -0.575580 -6.309600
1.175600 -0.608590 -6.298000
1.175700 -0.613410 -6.298000
1.175700 -0.618230 -6.298000
1.175800 -0.623050 -6.297900
1.175800 -0.637560 -6.298200
1.175600 -0.661810 -6.299200
1.178500 -0.671930 -6.305200
1.178200 -0.676860 -6.305900
1.178300 -0.681680 -6.305900
1.178300 -0.686500 -6.305800
1.223300 -0.506770 -6.409000
1.267500 -0.531600 -6.513800
1.195000 -0.537130 -6.341600
1.184000 -0.566240 -6.315000
1.347100 -0.600330 -6.705600
1.178700 -0.589530 -6.302700
1.175900 -0.642340 -6.298000
1.176000 -0.651980 -6.297900
1.250400 -0.502740 -6.472100
1.207300 -0.518230 -6.368500
1.181700 -0.580210 -6.308100
1.176200 -0.603560 -6.296500
1.247700 -0.504850 -6.462900
1.232000 -0.507280 -6.425500
1.234500 -0.508400 -6.431800
1.220300 -0.508270 -6.398000
1.194100 -0.541470 -6.336600
1.179400 -0.594150 -6.301100
1.176600 -0.627600 -6.296000
1.176600 -0.632410 -6.296000
1.176600 -0.646940 -6.296400
1.176700 -0.656580 -6.296400
1.249200 -0.506320 -6.466300
1.239900 -0.509890 -6.443800
1.206100 -0.521780 -6.362700
1.179500 -0.666720 -6.302500
1.227800 -0.504150 -6.412400
1.193200 -0.545810 -6.331600
1.187600 -0.560340 -6.318500
1.187900 -0.561430 -6.318000
1.185300 -0.570680 -6.311900
1.182700 -0.691240 -6.308000
1.247300 -0.504410 -6.458200
1.230800 -0.504380 -6.418200
1.253300 -0.510150 -6.473000
1.248400 -0.510780 -6.460600
1.221300 -0.509420 -6.395900
1.205000 -0.525720 -6.357300
1.346900 -0.595770 -6.697200
1.183000 -0.584630 -6.305000
1.180200 -0.637430 -6.300100
1.180200 -0.661620 -6.300700
1.183000 -0.686270 -6.307100
1.192600 -0.550750 -6.327100
1.188500 -0.566090 -6.316600
1.185900 -0.575300 -6.310300
1.180500 -0.598610 -6.298400
1.180600 -0.608250 -6.298400
1.183100 -0.681400 -6.306700
1.254300 -0.507880 -6.470700
1.219400 -0.511410 -6.388600
1.204000 -0.529790 -6.352000
1.342400 -0.582040 -6.682700
1.190900 -0.561250 -6.321100
1.341500 -0.591350 -6.681100
1.183600 -0.589250 -6.303400
1.180700 -0.603380 -6.298100
1.180700 -0.613070 -6.298300
1.180800 -0.617880 -6.298300
1.181000 -0.622650 -6.297900
1.180900 -0.642000 -6.298400
1.181000 -0.651660 -6.298400
1.181000 -0.656490 -6.298500
1.217300 -0.513020 -6.381000
1.192100 -0.555960 -6.322900
1.181200 -0.646760 -6.297900
1.184000 -0.671400 -6.304400
1.183900 -0.676270 -6.304700
1.230500 -0.510740 -6.411500
1.208500 -0.521230 -6.359000
1.203100 -0.534090 -6.347000
1.192200 -0.561360 -6.320300
1.181600 -0.627250 -6.296300
1.181400 -0.632180 -6.297000
1.246000 -0.510030 -6.447200
1.226500 -0.508230 -6.401100
1.215800 -0.515980 -6.374600
1.189800 -0.570500 -6.313400
1.187200 -0.579730 -6.307200
1.184500 -0.666360 -6.302900
1.238600 -0.514410 -6.427500
1.201800 -0.537530 -6.341100
1.184900 -0.593660 -6.300300
1.184700 -0.661450 -6.302300
1.187500 -0.686090 -6.308700
1.187500 -0.690950 -6.308900
1.257700 -0.503900 -6.472400
1.213900 -0.518010 -6.367400
1.342200 -0.577500 -6.674300
1.187900 -0.584350 -6.305700
1.254600 -0.510470 -6.463500
1.243100 -0.511080 -6.435600
1.201200 -0.542460 -6.336600
1.185400 -0.656370 -6.300500
1.260300 -0.510600 -6.473900
1.240700 -0.509730 -6.427800
1.243300 -0.510750 -6.434000
1.212800 -0.521900 -6.361900
1.200300 -0.546850 -6.331600
1.193800 -0.565690 -6.316400
1.354500 -0.599990 -6.700500
1.185600 -0.598270 -6.298800
1.185800 -0.607870 -6.298400
1.185700 -0.636910 -6.299200
1.185600 -0.641790 -6.299700
1.185900 -0.651360 -6.299100
1.188400 -0.680950 -6.306500
1.233200 -0.506710 -6.409100
1.258700 -0.510760 -6.469500
1.191400 -0.574830 -6.309500
1.185900 -0.603010 -6.298100
1.185900 -0.612670 -6.298300
1.185900 -0.617490 -6.298200
1.186000 -0.622310 -6.298200
1.185900 -0.646490 -6.298900
1.258200 -0.509070 -6.467100
1.239000 -0.507570 -6.420900
1.228600 -0.510880 -6.396500
1.212000 -0.526460 -6.357100
1.199600 -0.551500 -6.326900
1.350800 -0.589930 -6.688500
1.194400 -0.570320 -6.314800
1.189100 -0.588760 -6.302600
1.189000 -0.671040 -6.304700
1.188900 -0.675910 -6.305000
1.260500 -0.511070 -6.471000
1.252000 -0.510620 -6.451000
1.257800 -0.513050 -6.463700
1.213200 -0.521090 -6.357300
1.342000 -0.572980 -6.666000
1.346500 -0.587100 -6.676000
1.192100 -0.579450 -6.307900
1.186800 -0.626850 -6.296300
1.186800 -0.631680 -6.296300
1.232900 -0.507460 -6.403500
1.260700 -0.513440 -6.469600
1.226900 -0.513350 -6.389600
1.211300 -0.531150 -6.352400
1.199000 -0.556630 -6.322600
1.225300 -0.516110 -6.383000
1.189800 -0.593380 -6.301000
1.189800 -0.661070 -6.302500
1.189900 -0.665880 -6.302400
1.192700 -0.685680 -6.308700
1.268700 -0.505910 -6.485000
1.260900 -0.510160 -6.466400
1.266900 -0.511390 -6.480800
1.249400 -0.510770 -6.438500
1.257200 -0.514100 -6.457800
1.210200 -0.535150 -6.347100
1.198400 -0.561480 -6.318100
1.190300 -0.641540 -6.300700
1.190200 -0.656090 -6.301300
1.193000 -0.690380 -6.307900
1.223000 -0.517320 -6.375000
1.209100 -0.538970 -6.341600
1.198600 -0.565420 -6.317100
1.196000 -0.574650 -6.311000
1.193200 -0.583920 -6.305200
1.190600 -0.597920 -6.299000
1.190400 -0.636670 -6.300300
1.190700 -0.646240 -6.299900
1.190700 -0.651080 -6.300000
1.193200 -0.680640 -6.307200
1.190700 -0.602730 -6.298900
1.190800 -0.607550 -6.298800
1.190900 -0.612330 -6.298600
1.191000 -0.617130 -6.298400
1.247900 -0.514460 -6.431300
1.220500 -0.517810 -6.366300
1.208400 -0.543780 -6.337000
1.191200 -0.621910 -6.298200
1.191200 -0.631570 -6.298300
1.263400 -0.508150 -6.466200
1.194000 -0.588480 -6.303300
1.191500 -0.626630 -6.297400
1.194100 -0.675460 -6.304800
1.238600 -0.509270 -6.405800
1.241000 -0.510470 -6.412100
1.235300 -0.511530 -6.398400
1.218200 -0.521070 -6.357000
1.219800 -0.522700 -6.361800
1.207100 -0.547210 -6.331100
1.197300 -0.579070 -6.307900
1.194300 -0.670560 -6.304200
1.244200 -0.510460 -6.417800
1.246900 -0.511250 -6.423900
1.254900 -0.513630 -6.442200
1.200200 -0.569750 -6.313200
1.194900 -0.593020 -6.301200
1.194800 -0.631710 -6.302100
1.195000 -0.641340 -6.302000
1.194900 -0.665520 -6.302700
1.259200 -0.511390 -6.450700
1.263300 -0.514250 -6.461200
1.235800 -0.512010 -6.396600
1.219200 -0.527620 -6.357300
1.206600 -0.552250 -6.326700
1.197600 -0.583790 -6.307100
1.195200 -0.597760 -6.300600
1.195000 -0.655810 -6.302200
1.195000 -0.660660 -6.302400
1.197800 -0.680470 -6.308800
1.197700 -0.685320 -6.309000
1.255600 -0.510470 -6.441400
1.234600 -0.515660 -6.390900
1.353300 -0.586900 -6.674900
1.195500 -0.602500 -6.299900
1.195500 -0.607310 -6.299900
1.256600 -0.512030 -6.442000
1.218500 -0.532370 -6.352700
1.206000 -0.557290 -6.322400
1.198300 -0.588410 -6.305500
1.195700 -0.612090 -6.299600
1.195800 -0.636210 -6.299900
1.195600 -0.645920 -6.300400
1.195800 -0.650700 -6.300200
1.198500 -0.675350 -6.306800
1.267200 -0.514380 -6.465400
1.232600 -0.517580 -6.383600
1.201500 -0.574170 -6.310200
1.198600 -0.593120 -6.304700
1.196000 -0.616800 -6.298800
1.196200 -0.621570 -6.298500
1.196000 -0.626480 -6.299200
1.285300 -0.521030 -6.506900
1.291800 -0.524930 -6.523000
1.217800 -0.537180 -6.348100
1.205400 -0.562240 -6.317900
1.199100 -0.689600 -6.305600
1.274100 -0.512310 -6.478800
1.241400 -0.511770 -6.401800
1.230600 -0.519250 -6.376000
1.216700 -0.541000 -6.342600
1.201800 -0.578900 -6.309400
1.199400 -0.597710 -6.303000
1.199400 -0.670200 -6.304600
1.272300 -0.512150 -6.473700
1.275500 -0.513560 -6.480000
1.223600 -0.521150 -6.358000
1.204700 -0.567180 -6.313500
1.204800 -0.569580 -6.314700
1.243400 -0.512720 -6.403000
1.228500 -0.520950 -6.368400
1.215400 -0.544440 -6.336700
1.205500 -0.568880 -6.314500
1.202500 -0.583510 -6.307800
1.200000 -0.602340 -6.301600
1.200100 -0.607120 -6.301300
1.200100 -0.640950 -6.302100
1.272200 -0.512730 -6.469800
1.246400 -0.513030 -6.408800
1.210800 -0.555730 -6.325400
1.202900 -0.588230 -6.307000
1.203000 -0.593020 -6.306800
1.200300 -0.655380 -6.302000
1.200300 -0.660180 -6.302000
1.203000 -0.680020 -6.308600
1.281400 -0.513800 -6.489800
1.227300 -0.524500 -6.362600
1.214300 -0.548460 -6.331400
1.213800 -0.551210 -6.330800
1.205800 -0.574080 -6.312200
1.200500 -0.611830 -6.300600
1.200700 -0.616570 -6.300000
1.200600 -0.635920 -6.300600
1.200400 -0.645650 -6.301300
1.200700 -0.664880 -6.301200
1.203200 -0.675100 -6.307900
1.203300 -0.684720 -6.307800
1.241800 -0.510530 -6.394400
1.249900 -0.512610 -6.414300
1.271000 -0.516310 -6.463900
1.257900 -0.514990 -6.432600
1.226400 -0.529010 -6.357800
1.211400 -0.560360 -6.323800
1.200800 -0.650350 -6.300500
1.203700 -0.670080 -6.306600
1.266200 -0.512050 -6.450500
1.253300 -0.512440 -6.419900
1.292500 -0.525030 -6.512800
1.213700 -0.553450 -6.327000
1.206600 -0.578660 -6.310400
1.203900 -0.597550 -6.304600
1.261400 -0.514580 -6.438100
1.241400 -0.516040 -6.390400
1.225700 -0.533770 -6.353100
1.201500 -0.621120 -6.298000
1.201500 -0.625960 -6.298200
1.201600 -0.630730 -6.298000
1.256700 -0.512180 -6.425400
1.264400 -0.514970 -6.443900
1.266900 -0.515930 -6.450200
1.207100 -0.583330 -6.309300
1.204500 -0.689100 -6.305000
1.285800 -0.516810 -6.492200
1.240500 -0.520360 -6.385300
1.225100 -0.538620 -6.348600
1.215400 -0.555560 -6.326900
1.210000 -0.569200 -6.314700
1.204700 -0.602110 -6.302700
1.204700 -0.606940 -6.302800
1.262400 -0.516260 -6.435900
1.298600 -0.522510 -6.522100
1.213000 -0.564700 -6.320000
1.212700 -0.564700 -6.318300
1.210500 -0.573880 -6.313500
1.205000 -0.611660 -6.302100
1.205100 -0.640600 -6.302400
1.205300 -0.645370 -6.302200
1.205300 -0.655020 -6.302300
1.285300 -0.514090 -6.488900
1.238200 -0.521480 -6.377200
1.223800 -0.542060 -6.342700
1.213000 -0.567360 -6.318100
1.208000 -0.587850 -6.306900
1.205300 -0.659830 -6.302300
1.208000 -0.674810 -6.308800
1.208000 -0.679660 -6.309000
1.282100 -0.513260 -6.478800
1.248800 -0.515360 -6.399700
1.235700 -0.522100 -6.368600
1.208400 -0.592560 -6.306100
1.205900 -0.616180 -6.299900
1.222800 -0.546080 -6.337400
1.216800 -0.559940 -6.323400
1.211200 -0.578460 -6.311700
1.208700 -0.597270 -6.305300
1.206000 -0.649940 -6.300400
1.206000 -0.664390 -6.300600
1.208800 -0.684180 -6.307000
1.208800 -0.689000 -6.307100
1.279500 -0.513890 -6.470000
1.252100 -0.515180 -6.405300
1.234400 -0.525650 -6.362800
1.219600 -0.555480 -6.329100
1.214300 -0.569100 -6.316700
1.209200 -0.606780 -6.304400
1.206500 -0.625620 -6.298600
1.206400 -0.635300 -6.299000
1.250300 -0.514800 -6.398700
1.221500 -0.549680 -6.331600
1.209300 -0.611570 -6.304200
1.206500 -0.620770 -6.298400
1.206700 -0.630380 -6.298300
1.209300 -0.669530 -6.305600
1.286700 -0.515280 -6.483900
1.248700 -0.511000 -6.393900
1.277600 -0.516000 -6.462700
1.255600 -0.514770 -6.410700
1.299400 -0.523710 -6.513100
1.233500 -0.529920 -6.357700
1.217600 -0.564520 -6.321500
1.215100 -0.573690 -6.314900
1.212200 -0.582960 -6.309200
1.209700 -0.601790 -6.303100
1.209500 -0.640460 -6.304300
1.273000 -0.512230 -6.449800
1.261500 -0.515630 -6.422600
1.258700 -0.515690 -6.415400
1.220900 -0.554680 -6.327200
1.292800 -0.518440 -6.495600
1.264500 -0.515940 -6.428400
1.269800 -0.517530 -6.440600
1.305600 -0.523510 -6.524800
1.248400 -0.516570 -6.390000
1.232800 -0.534680 -6.353100
1.221000 -0.559870 -6.325600
1.215600 -0.578370 -6.313800
1.212900 -0.587570 -6.307600
1.210300 -0.645000 -6.302300
1.210400 -0.654640 -6.302500
1.210300 -0.659470 -6.302600
1.210400 -0.664290 -6.302700
1.273000 -0.517510 -6.446300
1.275400 -0.518710 -6.452600
1.210500 -0.615990 -6.301400
1.210700 -0.649700 -6.301600
1.213300 -0.679180 -6.308500
1.213200 -0.688880 -6.309100
1.295400 -0.515020 -6.498300
1.295300 -0.515370 -6.497900
1.268000 -0.515520 -6.433900
1.246700 -0.519300 -6.383400
1.231900 -0.539030 -6.348100
1.218800 -0.568950 -6.318400
1.213600 -0.674260 -6.307800
1.213500 -0.683930 -6.308200
1.293800 -0.517910 -6.491800
1.256100 -0.515840 -6.403000
1.222000 -0.564400 -6.323300
1.213900 -0.592050 -6.305200
1.211200 -0.625390 -6.299800
1.213800 -0.669340 -6.307100
1.279500 -0.517490 -6.457700
1.244800 -0.521170 -6.376000
1.231000 -0.543380 -6.343000
1.219600 -0.573520 -6.316400
1.216800 -0.582780 -6.310700
1.214100 -0.596830 -6.304900
1.214300 -0.601590 -6.304500
1.214100 -0.606490 -6.305100
1.214200 -0.611270 -6.304800
1.211600 -0.620420 -6.298700
1.211700 -0.630030 -6.298600
1.288700 -0.512940 -6.477600
1.283000 -0.517070 -6.463100
1.242400 -0.522280 -6.367900
1.211700 -0.634840 -6.298600
1.286100 -0.513590 -6.468800
1.245800 -0.521360 -6.374200
1.229800 -0.546890 -6.337200
1.225500 -0.559740 -6.327500
1.222400 -0.564220 -6.319900
1.215000 -0.639950 -6.303500
1.214700 -0.664170 -6.304600
1.217500 -0.693600 -6.311200
1.259400 -0.513600 -6.404700
1.257800 -0.517340 -6.401800
1.256900 -0.519100 -6.398700
1.241300 -0.526070 -6.362300
1.220600 -0.578040 -6.314100
1.215000 -0.615810 -6.302900
1.215200 -0.659170 -6.303300
1.294500 -0.519030 -6.486900
1.306400 -0.523320 -6.514400
1.261000 -0.517430 -6.407500
1.263400 -0.518520 -6.413800
1.312800 -0.526590 -6.529800
1.228800 -0.551050 -6.332000
1.224300 -0.565820 -6.321800
1.223400 -0.568770 -6.319800
1.218100 -0.587160 -6.307400
1.215400 -0.644640 -6.302700
1.215300 -0.654300 -6.302900
1.218000 -0.688590 -6.309900
1.299700 -0.517970 -6.496800
1.266800 -0.518270 -6.419300
1.240700 -0.531070 -6.357900
1.215900 -0.620330 -6.300800
1.215600 -0.649360 -6.302000
1.218300 -0.678810 -6.308800
1.218500 -0.683580 -6.308600
1.228200 -0.556040 -6.327600
1.221400 -0.582600 -6.312100
1.218700 -0.591790 -6.306000
1.216000 -0.625130 -6.300700
1.216100 -0.629890 -6.300300
1.216000 -0.634750 -6.300700
1.293500 -0.515820 -6.479500
1.270200 -0.518090 -6.424900
1.250900 -0.516130 -6.378300
1.255300 -0.517260 -6.389800
1.258000 -0.519550 -6.395600
1.247900 -0.522450 -6.371200
1.239900 -0.535670 -6.353100
1.219100 -0.601310 -6.305200
1.219100 -0.606160 -6.305500
1.219000 -0.668900 -6.306800
1.219100 -0.673700 -6.306800
1.303400 -0.517920 -6.500300
1.273400 -0.518080 -6.430500
1.227900 -0.561740 -6.323900
1.224700 -0.573170 -6.316600
1.219200 -0.596450 -6.304800
1.219400 -0.610870 -6.304700
1.219500 -0.615650 -6.304500
1.276300 -0.518470 -6.436400
1.239000 -0.540020 -6.348100
1.227700 -0.568700 -6.322100
1.225100 -0.577870 -6.315600
1.222500 -0.587060 -6.309400
1.219500 -0.663890 -6.305500
1.222300 -0.693310 -6.312100
1.300500 -0.517890 -6.490800
1.279800 -0.518050 -6.441900
1.220000 -0.654060 -6.304100
1.220000 -0.658890 -6.304200
1.222800 -0.688300 -6.310800
1.295300 -0.512640 -6.476400
1.259500 -0.520630 -6.393200
1.237800 -0.543720 -6.342500
1.220200 -0.620240 -6.302900
1.220400 -0.639460 -6.302800
1.249100 -0.522210 -6.367000
1.225900 -0.582440 -6.313800
1.223400 -0.591560 -6.307100
1.220700 -0.624890 -6.301800
1.220800 -0.629680 -6.301600
1.220500 -0.634600 -6.302400
1.220500 -0.644250 -6.302700
1.220600 -0.649040 -6.302600
1.292700 -0.513280 -6.467600
1.322300 -0.518820 -6.538000
1.286300 -0.518030 -6.453200
1.313400 -0.523850 -6.516600
1.256600 -0.517590 -6.382900
1.237000 -0.548250 -6.337600
1.223700 -0.601110 -6.306600
1.223700 -0.605930 -6.306600
1.223700 -0.683130 -6.308400
1.263500 -0.519490 -6.398300
1.248200 -0.526650 -6.362000
1.229200 -0.573020 -6.318200
1.223800 -0.668610 -6.307700
1.223900 -0.673410 -6.307700
1.224000 -0.678210 -6.307600
1.321000 -0.522430 -6.532100
1.269100 -0.520670 -6.410200
1.235700 -0.551680 -6.331800
1.226900 -0.586930 -6.311300
1.224200 -0.596110 -6.305200
1.224300 -0.663610 -6.306400
1.318100 -0.522570 -6.522800
1.267300 -0.518730 -6.403500
1.272600 -0.520260 -6.415700
1.247900 -0.532220 -6.358100
1.230000 -0.577580 -6.316200
1.224500 -0.610480 -6.304700
1.224500 -0.615320 -6.304900
1.227200 -0.688180 -6.312700
1.227200 -0.693000 -6.312800
1.314200 -0.523260 -6.512200
1.253800 -0.518270 -6.371100
1.235100 -0.556680 -6.327300
1.230200 -0.582350 -6.315800
1.224900 -0.619990 -6.303900
1.224900 -0.653740 -6.304600
1.224900 -0.658560 -6.304700
1.314400 -0.520810 -6.511600
1.262200 -0.519550 -6.388100
1.253600 -0.524310 -6.368900
1.247000 -0.536660 -6.353200
1.227700 -0.591490 -6.309300
1.225300 -0.624690 -6.303100
1.225300 -0.629500 -6.303200
1.225200 -0.634370 -6.303600
1.225100 -0.639220 -6.303900
1.225200 -0.643990 -6.303600
1.225200 -0.648810 -6.303700
1.310500 -0.518570 -6.500000
1.235400 -0.563580 -6.324700
1.228300 -0.682930 -6.309800
1.264300 -0.524070 -6.390400
1.245800 -0.540360 -6.347600
1.228600 -0.596010 -6.307200
1.303500 -0.516340 -6.480700
1.307100 -0.517580 -6.489700
1.235100 -0.569370 -6.321100
1.234100 -0.572740 -6.318900
1.231500 -0.586750 -6.312700
1.228800 -0.600740 -6.306600
1.228700 -0.663490 -6.308300
1.228800 -0.668260 -6.308100
1.304500 -0.518220 -6.480900
1.278100 -0.517020 -6.419600
1.320300 -0.523920 -6.518300
1.291400 -0.520990 -6.450100
1.256900 -0.522880 -6.369400
1.244800 -0.544300 -6.342100
1.229200 -0.605440 -6.305800
1.228900 -0.673040 -6.307900
1.283700 -0.518200 -6.431600
1.256500 -0.523800 -6.367600
1.229500 -0.614980 -6.305300
1.229300 -0.658420 -6.306600
1.229400 -0.677690 -6.306900
1.301300 -0.517380 -6.470700
1.330900 -0.522960 -6.541200
1.260100 -0.517930 -6.374000
1.325400 -0.529650 -6.528000
1.243700 -0.548270 -6.336800
1.235100 -0.577230 -6.316400
1.229500 -0.610140 -6.305000
1.229700 -0.619720 -6.304700
1.229800 -0.634140 -6.304800
1.229800 -0.638980 -6.305000
1.232200 -0.692620 -6.313100
1.232200 -0.702260 -6.313300
1.328100 -0.523110 -6.531800
1.287200 -0.517790 -6.437000
1.297800 -0.520960 -6.461500
1.329400 -0.526970 -6.535000
1.255100 -0.527050 -6.361500
1.235400 -0.581960 -6.315800
1.232800 -0.591130 -6.309500
1.230000 -0.624440 -6.304100
1.230000 -0.629280 -6.304400
1.230000 -0.643720 -6.304500
1.229900 -0.653390 -6.305000
1.232600 -0.687650 -6.312000
1.290700 -0.517370 -6.442500
1.300000 -0.520960 -6.464800
1.270000 -0.520430 -6.394100
1.242300 -0.551510 -6.330700
1.230200 -0.648460 -6.304100
1.283000 -0.514590 -6.424000
1.296100 -0.518890 -6.454700
1.255000 -0.533290 -6.358300
1.236000 -0.586570 -6.314200
1.233300 -0.595750 -6.308100
1.332600 -0.520280 -6.538300
1.321500 -0.521440 -6.511300
1.265400 -0.520730 -6.380000
1.241700 -0.556510 -6.326300
1.233600 -0.667980 -6.308900
1.233700 -0.682390 -6.309000
1.253800 -0.537000 -6.352600
1.244600 -0.558750 -6.331000
1.239300 -0.572340 -6.318700
1.233800 -0.600400 -6.306900
1.233800 -0.663090 -6.308400
1.233800 -0.672740 -6.308700
1.234000 -0.677480 -6.308300
1.236700 -0.702080 -6.314900
1.317100 -0.518180 -6.498700
1.262200 -0.523070 -6.369900
1.242200 -0.564060 -6.324300
1.234200 -0.614760 -6.306400
1.234300 -0.658070 -6.306900
1.236900 -0.697170 -6.314200
1.312400 -0.514320 -6.485600
1.274900 -0.517990 -6.398500
1.252900 -0.541190 -6.347500
1.242500 -0.562960 -6.323400
1.239900 -0.576970 -6.317300
1.237100 -0.591020 -6.311500
1.234600 -0.619430 -6.305500
1.234400 -0.629130 -6.306100
1.234500 -0.633930 -6.306000
1.234500 -0.638730 -6.306100
1.234600 -0.643540 -6.306000
1.234500 -0.653180 -6.306300
1.237200 -0.692250 -6.313400
1.242300 -0.570620 -6.321300
1.234900 -0.604840 -6.304200
1.234900 -0.624150 -6.304800
1.310700 -0.516930 -6.478800
1.278600 -0.517360 -6.403800
1.251800 -0.545140 -6.342100
1.240400 -0.581630 -6.316100
1.235300 -0.609540 -6.303400
1.235100 -0.648140 -6.304700
1.237700 -0.687230 -6.312000
1.339300 -0.526370 -6.543600
1.283500 -0.521020 -6.413500
1.263500 -0.524660 -6.367500
1.243400 -0.567470 -6.321100
1.238100 -0.595520 -6.309200
1.238100 -0.682250 -6.310800
1.308500 -0.518550 -6.471000
1.282300 -0.516600 -6.409100
1.270500 -0.519320 -6.381100
1.332000 -0.529770 -6.525200
1.251000 -0.549720 -6.337300
1.246500 -0.562980 -6.326400
1.238600 -0.667630 -6.309300
1.334000 -0.510960 -6.528100
1.337000 -0.527750 -6.535500
1.265000 -0.525260 -6.368300
1.262300 -0.528300 -6.361800
1.244100 -0.572090 -6.319500
1.241300 -0.586140 -6.313800
1.238800 -0.662730 -6.308700
1.238700 -0.677220 -6.309300
1.241500 -0.701760 -6.315600
1.336200 -0.527200 -6.532300
1.250400 -0.554720 -6.332800
1.241800 -0.590790 -6.312600
1.239000 -0.600010 -6.306900
1.238900 -0.672320 -6.308600
1.286400 -0.515380 -6.414100
1.273600 -0.521040 -6.384100
1.268400 -0.522710 -6.372800
1.261900 -0.533800 -6.357900
1.244700 -0.576720 -6.318100
1.239400 -0.619160 -6.306300
1.239300 -0.628820 -6.306700
1.239400 -0.633610 -6.306600
1.239300 -0.638440 -6.306800
1.239300 -0.643260 -6.306900
1.328400 -0.521810 -6.510800
1.305200 -0.520690 -6.456600
1.251400 -0.563250 -6.331700
1.247700 -0.567400 -6.323300
1.242400 -0.595410 -6.311200
1.239800 -0.604560 -6.304900
1.239600 -0.614260 -6.305600
1.239500 -0.623920 -6.306000
1.239700 -0.647950 -6.306100
1.239700 -0.652750 -6.306100
1.242400 -0.691800 -6.313200
1.242300 -0.696630 -6.313400
1.290000 -0.514710 -6.419400
1.308100 -0.521080 -6.462500
1.266900 -0.521700 -6.365500
1.269500 -0.524330 -6.371200
1.261100 -0.538310 -6.353000
1.248200 -0.572070 -6.322200
1.240100 -0.657430 -6.305300
1.242700 -0.686860 -6.312300
1.323500 -0.517510 -6.497200
1.251000 -0.562800 -6.327900
1.245700 -0.581200 -6.315600
1.319100 -0.514310 -6.484700
1.293300 -0.514580 -6.425000
1.301500 -0.516690 -6.443100
1.259700 -0.541610 -6.347000
1.251300 -0.567540 -6.327200
1.243300 -0.599940 -6.309100
1.240600 -0.609100 -6.303000
1.243300 -0.667390 -6.310500
1.243300 -0.677000 -6.310600
1.243100 -0.681890 -6.311200
1.338900 -0.510630 -6.529700
1.283900 -0.521030 -6.401300
1.271600 -0.521390 -6.372700
1.248900 -0.576640 -6.320300
1.246300 -0.585810 -6.314100
1.317500 -0.517010 -6.477900
1.305000 -0.516270 -6.448500
1.334300 -0.524290 -6.517000
1.259000 -0.546370 -6.342300
1.246600 -0.590530 -6.313400
1.244000 -0.643010 -6.308000
1.246700 -0.701330 -6.315500
1.342400 -0.518390 -6.534900
1.333200 -0.517270 -6.512400
1.297800 -0.512690 -6.429600
1.279700 -0.516780 -6.387500
1.274600 -0.522350 -6.375600
1.270500 -0.525350 -6.367300
1.257700 -0.553600 -6.337000
1.252200 -0.572080 -6.325100
1.244200 -0.604430 -6.306800
1.244300 -0.618820 -6.306700
1.244200 -0.638130 -6.307400
1.244400 -0.647710 -6.307300
1.244000 -0.671900 -6.308600
1.246900 -0.696450 -6.315000
1.316200 -0.520690 -6.472100
1.275800 -0.517830 -6.376800
1.258300 -0.551170 -6.337700
1.247300 -0.595110 -6.311700
1.244500 -0.623590 -6.306400
1.244500 -0.628410 -6.306600
1.244500 -0.633210 -6.306600
1.244400 -0.662140 -6.307500
1.247200 -0.691510 -6.314100
1.337300 -0.511700 -6.519300
1.301300 -0.512270 -6.435100
1.341600 -0.522980 -6.529900
1.340700 -0.524640 -6.526900
1.286700 -0.519660 -6.401000
1.269700 -0.529940 -6.362500
1.250200 -0.581030 -6.317100
1.244800 -0.609010 -6.305200
1.244900 -0.613800 -6.305100
1.244700 -0.652390 -6.306400
1.247600 -0.676900 -6.312700
1.247600 -0.686540 -6.313000
1.283600 -0.515720 -6.392600
1.315500 -0.525510 -6.467500
1.258600 -0.558190 -6.335200
1.253100 -0.576590 -6.322800
1.247800 -0.599770 -6.310600
1.276600 -0.522330 -6.374500
1.269100 -0.534950 -6.358100
1.256200 -0.562430 -6.327800
1.256300 -0.567220 -6.327600
1.245500 -0.656920 -6.304600
1.346100 -0.514400 -6.535400
1.337000 -0.525740 -6.513700
1.283000 -0.519310 -6.387500
1.384800 -0.542680 -6.625200
1.259200 -0.557930 -6.333100
1.258200 -0.563660 -6.331200
1.248500 -0.604320 -6.308800
1.248300 -0.681440 -6.310900
1.328200 -0.513060 -6.492000
1.287700 -0.514500 -6.397600
1.268200 -0.539370 -6.353100
1.262100 -0.553470 -6.338900
1.256900 -0.571860 -6.326200
1.254200 -0.581050 -6.320100
1.251500 -0.585430 -6.314000
1.251600 -0.590210 -6.313800
1.248600 -0.642800 -6.309300
1.248800 -0.647570 -6.309100
1.248700 -0.666860 -6.309700
1.248700 -0.671650 -6.309600
1.251500 -0.696220 -6.316300
1.249100 -0.608920 -6.307300
1.249000 -0.637870 -6.308400
1.249100 -0.652250 -6.308300
1.251700 -0.691340 -6.315700
1.251500 -0.701010 -6.316200
1.351500 -0.512970 -6.542300
1.325800 -0.514000 -6.483500
1.278300 -0.521570 -6.372000
1.267200 -0.543490 -6.347900
1.257500 -0.576480 -6.324800
1.252000 -0.594890 -6.312900
1.249400 -0.613650 -6.306800
1.249300 -0.618500 -6.307200
1.249400 -0.623270 -6.307000
1.249500 -0.628050 -6.306800
1.252000 -0.686400 -6.314800
1.346400 -0.511040 -6.529900
1.343600 -0.511390 -6.522200
1.353700 -0.521890 -6.546900
1.373500 -0.532470 -6.592500
1.265900 -0.548720 -6.342300
1.260500 -0.562330 -6.329900
1.255000 -0.585600 -6.318200
1.252300 -0.599580 -6.312100
1.249600 -0.632810 -6.306500
1.324300 -0.517290 -6.477300
1.292900 -0.516520 -6.403600
1.287500 -0.516730 -6.390300
1.277800 -0.526710 -6.367700
1.266600 -0.548500 -6.343400
1.263500 -0.557850 -6.335400
1.249800 -0.656800 -6.306600
1.250000 -0.661560 -6.306300
1.252700 -0.681320 -6.312900
1.298200 -0.513260 -6.413900
1.313900 -0.518360 -6.450600
1.322900 -0.520580 -6.471100
1.252800 -0.604220 -6.310800
1.253000 -0.676360 -6.311800
1.340400 -0.513350 -6.511500
1.281000 -0.521840 -6.372900
1.277100 -0.531580 -6.363200
1.266000 -0.553500 -6.339000
1.261300 -0.566910 -6.328000
1.258700 -0.580870 -6.321600
1.256100 -0.590050 -6.315400
1.253400 -0.623300 -6.309900
1.253300 -0.642560 -6.310400
1.253400 -0.647350 -6.310300
1.253400 -0.666610 -6.310800
1.295800 -0.511630 -6.404900
1.312300 -0.516000 -6.443700
1.346700 -0.523820 -6.523200
1.322200 -0.525300 -6.466400
1.389200 -0.545500 -6.623900
1.275000 -0.535170 -6.358300
1.261700 -0.571600 -6.327100
1.253400 -0.608820 -6.309400
1.253600 -0.618400 -6.309200
1.253400 -0.652150 -6.310300
1.256300 -0.686290 -6.316800
1.256400 -0.691080 -6.316800
1.256200 -0.695960 -6.317300
1.304700 -0.516650 -6.424300
1.346100 -0.524490 -6.521000
1.291700 -0.517430 -6.394700
1.290300 -0.519490 -6.391500
1.286600 -0.523670 -6.383300
1.272900 -0.544230 -6.350600
1.270200 -0.548640 -6.344500
1.267400 -0.553060 -6.338400
1.259200 -0.585520 -6.320400
1.253900 -0.613470 -6.308300
1.254000 -0.627880 -6.308400
1.253900 -0.671230 -6.309600
1.256400 -0.700690 -6.316900
1.305100 -0.512420 -6.424800
1.304000 -0.513110 -6.421200
1.340900 -0.519500 -6.506800
1.264900 -0.562220 -6.331900
1.256800 -0.594590 -6.313500
1.254300 -0.632570 -6.307600
1.254100 -0.637470 -6.308300
1.254300 -0.656630 -6.308200
1.256900 -0.681240 -6.315200
1.308600 -0.512010 -6.430200
1.289300 -0.521070 -6.385900
1.379300 -0.537410 -6.594600
1.285600 -0.525520 -6.377000
1.389500 -0.544700 -6.619000
1.268000 -0.557680 -6.336800
1.257000 -0.599340 -6.313100
1.257200 -0.604110 -6.312900
1.349900 -0.511080 -6.525100
1.335300 -0.513740 -6.491700
1.311600 -0.512400 -6.436100
1.305700 -0.517190 -6.422900
1.275800 -0.541400 -6.354100
1.263000 -0.575990 -6.323800
1.254600 -0.661310 -6.307400
1.257500 -0.676210 -6.313600
1.353800 -0.515330 -6.533200
1.290200 -0.520220 -6.385600
1.392600 -0.548810 -6.622900
1.279300 -0.535090 -6.360500
1.274100 -0.548660 -6.347500
1.265800 -0.566740 -6.329600
1.260600 -0.589870 -6.316900
1.257800 -0.608710 -6.311300
1.257800 -0.666470 -6.312600
1.257800 -0.671280 -6.312700
1.346700 -0.513040 -6.514400
1.333800 -0.516830 -6.485400
1.286600 -0.525160 -6.374500
1.263600 -0.585410 -6.322400
1.258300 -0.618170 -6.310400
1.258000 -0.623060 -6.311000
1.260700 -0.695780 -6.318900
1.360000 -0.515620 -6.544700
1.330900 -0.516980 -6.476100
1.289600 -0.524920 -6.380400
1.278900 -0.544080 -6.355500
1.272000 -0.552880 -6.339900
1.269100 -0.562150 -6.334100
1.258400 -0.613310 -6.309900
1.295700 -0.516670 -6.392700
1.285600 -0.529190 -6.369200
1.274900 -0.553240 -6.345500
1.266700 -0.571250 -6.327200
1.264100 -0.580400 -6.320800
1.258800 -0.627590 -6.309100
1.258700 -0.642070 -6.309700
1.258700 -0.646860 -6.309700
1.258700 -0.651700 -6.310000
1.258800 -0.656440 -6.309600
1.261500 -0.700260 -6.316900
1.329000 -0.519090 -6.468800
1.295200 -0.517210 -6.390700
1.296800 -0.518290 -6.393500
1.261700 -0.685780 -6.316200
1.261700 -0.690570 -6.316200
1.355900 -0.511670 -6.528900
1.300200 -0.515020 -6.400800
1.284600 -0.533420 -6.364000
1.281100 -0.539340 -6.355900
1.270100 -0.566660 -6.331800
1.267500 -0.575810 -6.325300
1.264900 -0.589790 -6.319100
1.261900 -0.594240 -6.313700
1.262000 -0.599000 -6.313400
1.262000 -0.603830 -6.313600
1.262100 -0.675990 -6.314900
1.261900 -0.680870 -6.315500
1.302400 -0.520310 -6.404300
1.328900 -0.525330 -6.465500
1.293500 -0.520940 -6.383700
1.381500 -0.536540 -6.588200
1.278400 -0.548590 -6.349700
1.273200 -0.557300 -6.336800
1.259600 -0.632110 -6.307100
1.259700 -0.636900 -6.307100
1.352700 -0.524180 -6.519800
1.298400 -0.517410 -6.393800
1.283200 -0.536530 -6.357800
1.276300 -0.557620 -6.342100
1.262600 -0.608440 -6.312200
1.259800 -0.660900 -6.307300
1.363500 -0.521000 -6.542900
1.347500 -0.519190 -6.505600
1.321700 -0.517330 -6.445400
1.324000 -0.518750 -6.451800
1.306500 -0.517770 -6.411200
1.279200 -0.553160 -6.347800
1.273600 -0.561980 -6.335600
1.271100 -0.571120 -6.329100
1.268500 -0.580290 -6.322800
1.262900 -0.666050 -6.312500
1.353000 -0.512540 -6.517100
1.385800 -0.519760 -6.592600
1.316700 -0.515350 -6.433000
1.263200 -0.613040 -6.310800
1.263200 -0.617840 -6.310800
1.263200 -0.622660 -6.310900
1.263300 -0.627420 -6.310700
1.263300 -0.670730 -6.311700
1.311900 -0.512960 -6.420400
1.344200 -0.518350 -6.495300
1.330300 -0.518900 -6.463200
1.312000 -0.516950 -6.419800
1.282600 -0.543690 -6.352000
1.274400 -0.566550 -6.333800
1.268900 -0.584970 -6.321800
1.266400 -0.594080 -6.315300
1.263500 -0.651410 -6.310800
1.263400 -0.656250 -6.311100
1.263400 -0.661040 -6.311000
1.266100 -0.700060 -6.318300
1.362300 -0.517970 -6.535500
1.367800 -0.519370 -6.547700
1.315100 -0.512950 -6.426100
1.341300 -0.518490 -6.486100
1.370900 -0.523110 -6.555800
1.306600 -0.514700 -6.405500
1.387400 -0.530750 -6.594000
1.296400 -0.525690 -6.383300
1.271900 -0.575680 -6.327100
1.269100 -0.589710 -6.321400
1.263900 -0.632020 -6.309300
1.263900 -0.636820 -6.309300
1.263700 -0.641690 -6.309900
1.360000 -0.516630 -6.529100
1.316100 -0.514400 -6.426800
1.283300 -0.548310 -6.350400
1.277800 -0.561940 -6.338200
1.266900 -0.603500 -6.314000
1.264000 -0.646390 -6.309200
1.358500 -0.515130 -6.523000
1.339800 -0.521590 -6.479700
1.302700 -0.517260 -6.393400
1.296000 -0.524540 -6.378100
1.295100 -0.528100 -6.377000
1.295100 -0.529240 -6.377500
1.280600 -0.557540 -6.344300
1.267200 -0.598610 -6.313300
1.267100 -0.685210 -6.315200
1.267100 -0.690040 -6.315400
1.267100 -0.694840 -6.315500
1.390300 -0.524150 -6.595900
1.299800 -0.520360 -6.386300
1.293200 -0.531320 -6.370300
1.275700 -0.570950 -6.330500
1.272800 -0.580180 -6.324800
1.267300 -0.608170 -6.313000
1.267500 -0.675430 -6.313900
1.267300 -0.680330 -6.314600
1.387900 -0.528250 -6.588100
1.336900 -0.521730 -6.470500
1.300900 -0.521770 -6.387800
1.278600 -0.566510 -6.336200
1.267900 -0.651270 -6.312600
1.267600 -0.656170 -6.313300
1.267700 -0.660960 -6.313300
1.267900 -0.665690 -6.312800
1.355500 -0.516180 -6.511400
1.306700 -0.514710 -6.399600
1.291300 -0.533400 -6.363100
1.287200 -0.543510 -6.353500
1.270900 -0.593900 -6.316700
1.268000 -0.612760 -6.311500
1.268000 -0.617560 -6.311600
1.268100 -0.622340 -6.311500
1.268100 -0.627140 -6.311500
1.270600 -0.699860 -6.319800
1.305100 -0.517430 -6.393000
1.284800 -0.552650 -6.346500
1.273700 -0.584700 -6.322700
1.268300 -0.631860 -6.310900
1.268400 -0.636660 -6.311000
1.268300 -0.641500 -6.311300
1.268300 -0.646300 -6.311300
1.368600 -0.523950 -6.539800
1.337500 -0.520780 -6.467300
1.306800 -0.517230 -6.396000
1.301200 -0.525680 -6.382700
1.289800 -0.536360 -6.356800
1.282300 -0.561770 -6.339600
1.276900 -0.575330 -6.327300
1.268600 -0.670220 -6.311100
1.271400 -0.694720 -6.317500
1.354100 -0.518880 -6.504400
1.312700 -0.514660 -6.408700
1.301700 -0.525990 -6.382500
1.279900 -0.570870 -6.332700
1.271600 -0.603280 -6.315100
1.364600 -0.515570 -6.526700
1.351200 -0.519020 -6.495100
1.341000 -0.523090 -6.472100
1.305300 -0.524260 -6.390300
1.289200 -0.541420 -6.352400
1.277500 -0.579950 -6.325900
1.272100 -0.598300 -6.313900
1.271900 -0.684920 -6.316100
1.271800 -0.689760 -6.316400
1.392500 -0.515650 -6.589800
1.373200 -0.521920 -6.544300
1.379100 -0.526200 -6.557900
1.319300 -0.518540 -6.420000
1.305000 -0.520390 -6.386800
1.303600 -0.526840 -6.383500
1.288700 -0.547850 -6.349600
1.275100 -0.589020 -6.319000
1.272200 -0.607860 -6.313600
1.272200 -0.655960 -6.314700
1.272300 -0.660750 -6.314600
1.272300 -0.679960 -6.315000
1.275100 -0.699680 -6.321400
1.323400 -0.515880 -6.428600
1.334100 -0.519050 -6.453000
1.350200 -0.523110 -6.489700
1.286100 -0.557020 -6.343100
1.278000 -0.584600 -6.324700
1.272500 -0.612580 -6.313000
1.272600 -0.617340 -6.312800
1.272700 -0.626920 -6.312700
1.272600 -0.651000 -6.313500
1.393900 -0.524760 -6.589300
1.329400 -0.516530 -6.440300
1.339600 -0.520300 -6.465000
1.319200 -0.517870 -6.417900
1.390600 -0.531440 -6.581900
1.302300 -0.530390 -6.377700
1.290800 -0.544330 -6.351600
1.289300 -0.552470 -6.348000
1.272800 -0.622100 -6.312500
1.273000 -0.631640 -6.312100
1.273000 -0.636450 -6.312300
1.273000 -0.641260 -6.312400
1.272800 -0.646130 -6.312900
1.272800 -0.665340 -6.313300
1.272900 -0.674910 -6.313200
1.361800 -0.515870 -6.514300
1.376900 -0.521100 -6.549600
1.358100 -0.519800 -6.505700
1.337600 -0.518630 -6.458400
1.318300 -0.516770 -6.414000
1.346900 -0.522260 -6.479500
1.286900 -0.561590 -6.341100
1.284100 -0.565980 -6.335000
1.281300 -0.575220 -6.329300
1.273100 -0.670030 -6.312600
1.275700 -0.694620 -6.319600
1.398700 -0.527040 -6.598400
1.324900 -0.517280 -6.426700
1.299900 -0.531300 -6.369400
1.295400 -0.538630 -6.358700
1.293200 -0.545470 -6.353800
1.276300 -0.593430 -6.316100
1.394400 -0.514200 -6.586100
1.313700 -0.515280 -6.399300
1.315200 -0.518260 -6.403000
1.279400 -0.588940 -6.321200
1.276600 -0.598130 -6.315300
1.276500 -0.602970 -6.315700
1.276500 -0.655860 -6.316700
1.276600 -0.660650 -6.316700
1.276600 -0.665420 -6.316600
1.276400 -0.689550 -6.317800
1.370800 -0.515410 -6.529800
1.307500 -0.523490 -6.383500
1.298500 -0.534560 -6.363300
1.290500 -0.556900 -6.344900
1.282200 -0.579720 -6.326900
1.276900 -0.607640 -6.314700
1.276700 -0.679830 -6.316800
1.276700 -0.684610 -6.316800
1.312700 -0.519420 -6.394000
1.296100 -0.543210 -6.356800
1.293500 -0.547580 -6.350300
1.285400 -0.570370 -6.331800
1.277200 -0.612320 -6.313900
1.277300 -0.617120 -6.314000
1.277000 -0.650850 -6.315200
1.360700 -0.518570 -6.503200
1.288400 -0.565900 -6.337200
1.277400 -0.621860 -6.313600
1.277400 -0.626700 -6.313900
1.277600 -0.636240 -6.313600
1.277400 -0.645930 -6.314300
1.277300 -0.669970 -6.315000
1.277300 -0.674790 -6.315200
1.280000 -0.699320 -6.321800
1.399900 -0.516610 -6.591900
1.396100 -0.520840 -6.583500
1.312500 -0.525320 -6.390400
1.291300 -0.561460 -6.342900
1.286000 -0.574990 -6.330300
1.280600 -0.593330 -6.318100
1.277600 -0.631410 -6.313400
1.277600 -0.641010 -6.313500
1.280500 -0.694320 -6.320400
1.368100 -0.515550 -6.517200
1.358200 -0.519500 -6.494700
1.324500 -0.516460 -6.416900
1.283600 -0.584070 -6.323500
1.321000 -0.519560 -6.407600
1.357000 -0.526820 -6.490900
1.396000 -0.535540 -6.580100
1.311300 -0.529170 -6.384900
1.300200 -0.538360 -6.359400
1.297600 -0.539080 -6.354600
1.297500 -0.547600 -6.353300
1.294700 -0.552000 -6.347200
1.286500 -0.579610 -6.328900
1.281100 -0.597960 -6.316900
1.281000 -0.679710 -6.318800
1.281000 -0.689330 -6.319100
1.379400 -0.523260 -6.540300
1.397400 -0.529300 -6.582900
1.358200 -0.525760 -6.491300
1.355700 -0.525940 -6.486000
1.281400 -0.602640 -6.316100
1.281300 -0.655570 -6.317500
1.365100 -0.516600 -6.505600
1.329900 -0.516820 -6.424500
1.310600 -0.533990 -6.380200
1.295400 -0.556620 -6.345600
1.292600 -0.565820 -6.339500
1.289700 -0.570260 -6.333700
1.281600 -0.650650 -6.316600
1.281600 -0.660270 -6.316900
1.281700 -0.674620 -6.316800
1.281700 -0.684240 -6.317100
1.382900 -0.522840 -6.545800
1.351400 -0.522840 -6.473000
1.284700 -0.588470 -6.320500
1.281800 -0.607310 -6.315100
1.281900 -0.612080 -6.314900
1.281900 -0.616900 -6.315200
1.282000 -0.626470 -6.315100
1.282000 -0.645690 -6.315500
1.281900 -0.664940 -6.316100
1.284600 -0.699100 -6.323100
1.378200 -0.520160 -6.532900
1.404900 -0.528380 -6.594300
1.324300 -0.517610 -6.409800
1.308300 -0.535100 -6.372100
1.301400 -0.542800 -6.356300
1.285100 -0.593150 -6.319600
1.282100 -0.621630 -6.314700
1.282200 -0.631190 -6.314600
1.282100 -0.636030 -6.314900
1.282300 -0.640780 -6.314600
1.282300 -0.669610 -6.315300
1.333600 -0.516010 -6.429700
1.331200 -0.517050 -6.423600
1.321300 -0.517310 -6.400300
1.323600 -0.521900 -6.406100
1.304500 -0.538280 -6.361600
1.290700 -0.574760 -6.331400
1.285300 -0.694030 -6.321300
1.376600 -0.517750 -6.525900
1.336800 -0.516020 -6.435300
1.350200 -0.519880 -6.465700
1.324900 -0.520060 -6.406800
1.305800 -0.536010 -6.363800
1.302000 -0.547420 -6.354700
1.299300 -0.551830 -6.348600
1.402700 -0.519160 -6.585000
1.340300 -0.515600 -6.440800
1.408900 -0.527150 -6.599300
1.330700 -0.516150 -6.419800
1.327200 -0.519430 -6.410600
1.320600 -0.522040 -6.395600
1.296800 -0.560940 -6.341700
1.285700 -0.597730 -6.318000
1.348600 -0.517610 -6.458800
1.363900 -0.520520 -6.494100
1.403200 -0.537940 -6.584400
1.294400 -0.570030 -6.334800
1.288900 -0.583610 -6.322800
1.286100 -0.602420 -6.317200
1.286200 -0.655220 -6.317900
1.372400 -0.514470 -6.512800
1.346400 -0.516140 -6.452400
1.362500 -0.520690 -6.488800
1.320100 -0.527360 -6.391500
1.292000 -0.579110 -6.327900
1.289200 -0.588300 -6.322100
1.286300 -0.616750 -6.316900
1.286500 -0.626310 -6.316800
1.286600 -0.635890 -6.316700
1.286500 -0.645500 -6.316900
1.286500 -0.650300 -6.317000
1.286600 -0.659910 -6.317200
1.286600 -0.674310 -6.317500
1.286300 -0.679200 -6.318200
1.286400 -0.688760 -6.318100
1.375900 -0.514050 -6.518200
1.365900 -0.521520 -6.495700
1.404800 -0.537920 -6.585600
1.306000 -0.542620 -6.357700
1.294900 -0.574680 -6.333600
1.286900 -0.606950 -6.315300
1.286900 -0.611730 -6.315300
1.286700 -0.683870 -6.317400
1.289600 -0.693930 -6.323300
1.289500 -0.698730 -6.323500
1.371600 -0.515390 -6.507500
1.344600 -0.513960 -6.445500
1.319000 -0.531210 -6.385900
1.303500 -0.551750 -6.350800
1.289800 -0.592920 -6.320700
1.287000 -0.621310 -6.315200
1.287000 -0.630930 -6.315500
1.287100 -0.640500 -6.315400
1.404600 -0.525350 -6.582000
1.301100 -0.556060 -6.344000
1.287300 -0.664440 -6.315400
1.287300 -0.669220 -6.315500
1.332900 -0.520920 -6.415300
1.317300 -0.533880 -6.379300
1.298600 -0.565150 -6.337100
1.293100 -0.583530 -6.325100
1.290300 -0.597550 -6.319500
1.359500 -0.526080 -6.475700
1.329500 -0.523750 -6.405700
1.296300 -0.579030 -6.330200
1.290600 -0.616660 -6.319000
1.339000 -0.518550 -6.426400
1.407600 -0.529970 -6.584700
1.363000 -0.525660 -6.481100
1.326100 -0.523260 -6.396800
1.314800 -0.534790 -6.370900
1.307300 -0.547010 -6.354200
1.293600 -0.588170 -6.323900
1.290900 -0.645390 -6.318900
1.290900 -0.654990 -6.319100
1.291000 -0.674130 -6.319100
1.368300 -0.516890 -6.492400
1.345500 -0.516730 -6.439300
1.411000 -0.529720 -6.590300
1.329700 -0.521100 -6.403100
1.310500 -0.542450 -6.359200
1.294100 -0.592810 -6.322700
1.291200 -0.602030 -6.317200
1.291400 -0.625960 -6.317000
1.291400 -0.635580 -6.317300
1.293800 -0.708240 -6.325800
1.376500 -0.517010 -6.509300
1.385700 -0.519140 -6.530600
1.337600 -0.513730 -6.420500
1.312500 -0.536030 -6.362900
1.308100 -0.551580 -6.352300
1.305300 -0.555980 -6.346200
1.291600 -0.611500 -6.316300
1.291700 -0.621070 -6.316300
1.291600 -0.630700 -6.316700
1.291500 -0.640360 -6.317300
1.291600 -0.649930 -6.317200
1.291500 -0.659550 -6.317500
1.291600 -0.669120 -6.317500
1.291700 -0.678680 -6.317500
1.291700 -0.683470 -6.317500
1.372200 -0.515840 -6.497400
1.328500 -0.524660 -6.397200
1.302800 -0.560270 -6.339300
1.300000 -0.569510 -6.333600
1.297500 -0.583420 -6.327100
1.294600 -0.597440 -6.321500
1.291800 -0.606610 -6.315600
1.291800 -0.664250 -6.316900
1.291800 -0.688240 -6.317400
1.294500 -0.703150 -6.323800
1.334100 -0.519450 -6.409500
1.300500 -0.574160 -6.332400
