-0.462426 1.16982 -12.1403
-0.56884 1.16982 -12.1358
-0.682617 1.18265 -12.2633
-0.790463 1.18319 -12.2625
-0.89927 1.18495 -12.2733
-1.01084 1.18966 -12.3137
-0.00296147 1.2729 -12.1109
-0.109083 1.27116 -12.0938
-0.215431 1.27255 -12.1056
-0.321574 1.27227 -12.1006
-1.07424 1.28482 -12.1769
-1.19287 1.29767 -12.2887
-1.30639 1.3034 -12.332
0.424648 1.26308 -12.0099
0.319253 1.26308 -12.0131
0.21511 1.27064 -12.0874
0.109133 1.27171 -12.099
0.00296551 1.27216 -12.1038
0.0330859 1.36628 -11.9917
-1.38572 1.41992 -12.3852
-1.47287 1.39942 -12.1939
0.592875 1.35319 -11.862
0.488671 1.35319 -11.8667
-0.0330711 1.36591 -11.9884
0.0717624 1.46643 -11.9429
-1.53551 1.50179 -12.1343
-1.65706 1.51543 -12.2305
0.552561 1.45195 -11.8123
-0.071734 1.46597 -11.9391
0.11339 1.5706 -11.9293
-1.74735 1.64705 -12.3879
-1.8368 1.62973 -12.242
-1.96976 1.65091 -12.3843
0.512849 1.55954 -11.8348
-0.113349 1.5701 -11.9256
0.0527769 1.67168 -11.8945
-2.02398 1.75287 -12.307
0.573258 1.66396 -11.8258
-0.0528243 1.67327 -11.9058
0.10017 1.77798 -11.8963
-2.10041 1.87675 -12.3808
-2.21108 1.87804 -12.3702
0.527496 1.77131 -11.8403
-0.100159 1.77784 -11.8954
0.0456902 1.8951 -11.9651
-2.23112 1.9553 -12.142
0.584527 1.88269 -11.8724
-0.150995 1.89003 -11.9322
0.0996333 2.01073 -12.0152
-0.22147 2.0307 -12.133
-0.32951 2.03499 -12.1562
-0.439259 2.04526 -12.2141
-0.544578 2.03505 -12.1488
-0.65631 2.04836 -12.2229
-0.760441 2.03766 -12.1528
-0.864134 2.02873 -12.0924
-0.9705 2.02749 -12.0769
-2.3187 2.09414 -12.2974
-2.39682 2.06774 -12.1217
0.531549 1.98634 -11.858
-0.0994746 2.00759 -11.9965
0.050277 2.13216 -12.092
-0.0568711 2.13216 -12.0919
-1.02309 2.13858 -12.0853
-1.13649 2.15059 -12.1435
-2.44764 2.17612 -12.0962
-2.57379 2.19236 -12.1642
0.479874 2.10809 -11.9459
0.373994 2.10809 -11.9497
0.268709 2.11293 -11.98
0.162665 2.11453 -11.991
0.0566995 2.12561 -12.0548
-0.0501239 2.12578 -12.0558
-1.18523 2.25943 -12.1331
-1.28652 2.24834 -12.0626
-2.61123 2.29199 -12.0876
-3.16989 2.67265 -14.0676
-1.34445 2.37821 -12.1608
-1.44401 2.36432 -12.0773
-2.79364 2.42675 -12.168
-3.34513 2.79759 -13.9982
-1.50411 2.50122 -12.2015
-1.61349 2.50243 -12.1935
-2.70686 2.51666 -12.07
-3.31855 2.8588 -13.6539
-1.64813 2.60264 -12.133
-3.20373 2.94739 -13.4912
-1.6967 2.72952 -12.1946
-2.67698 2.73545 -12.0449
-3.18047 3.00845 -13.1923
-1.98546 3.25557 -13.961
-3.18226 3.09347 -13.0159
-1.83811 3.27645 -13.5231
-1.8532 2.91844 -12.0141
-3.03488 3.14474 -12.7423
-1.74743 3.39542 -13.5057
-2.94252 3.25141 -12.7044
-1.72811 3.42143 -13.1163
-2.81861 3.19539 -12.0299
-1.62989 3.29071 -12.1725
-2.7317 3.30309 -12.0208
-1.63057 3.35985 -12.005
-2.64332 3.41252 -12.0179
-1.5648 3.52631 -12.1978
-1.6564 3.48619 -12.0444
-1.7692 3.49315 -12.0529
-1.87916 3.49429 -12.0403
-1.99378 3.50377 -12.0554
-2.11474 3.5231 -12.1031
-2.22448 3.52302 -12.0832
-2.33894 3.53036 -12.0876
-2.4635 3.55187 -12.1394
