2.7311800 -1.0942900 -11.9533000 0 255 0
2.7156700 -1.2039500 -11.8595000 0 255 0
2.7229000 -1.4403600 -11.8242000 0 255 0
2.7273600 -1.4652900 -11.8412000 0 255 0
2.7301100 -1.4897100 -11.8516000 0 255 0
2.8278900 -1.7454800 -12.2066000 0 255 0
2.7755500 -1.6966200 -11.9913000 0 255 0
2.8591500 -1.8448600 -12.3145000 0 255 0
2.7201800 -1.3926300 -11.8142000 0 255 0
2.7220000 -1.4166300 -11.8210000 0 255 0
2.7849700 -1.6971500 -12.0226000 0 255 0
2.7235000 -1.3232300 -11.8279000 0 255 0
2.7221100 -1.3463100 -11.8222000 0 255 0
2.7207100 -1.3693500 -11.8165000 0 255 0
2.7996500 -1.6879300 -12.0623000 0 255 0
2.8560900 -1.8136800 -12.2764000 0 255 0
2.7280200 -1.1885800 -11.8646000 0 255 0
2.7263100 -1.2770000 -11.8393000 0 255 0
2.7249100 -1.3001300 -11.8336000 0 255 0
2.8526100 -1.8016300 -12.2542000 0 255 0
2.7299900 -1.2308500 -11.8541000 0 255 0
2.7277200 -1.2538300 -11.8451000 0 255 0
2.8518000 -1.7847600 -12.2363000 0 255 0
2.7848600 -1.6901900 -11.9685000 0 255 0
2.8187300 -1.7539000 -12.1010000 0 255 0
2.7852400 -1.7040800 -11.9766000 0 255 0
2.7690000 -1.0722800 -12.0434000 0 255 0
2.7403500 -1.1623500 -11.8951000 0 255 0
2.7363000 -1.1851200 -11.8791000 0 255 0
2.7331400 -1.2080100 -11.8666000 0 255 0
2.7604800 -1.5860000 -11.8760000 0 255 0
2.7652100 -1.6113600 -11.8939000 0 255 0
2.7735000 -1.6382000 -11.9255000 0 255 0
2.7813000 -1.6650000 -11.9552000 0 255 0
2.8287200 -1.7537500 -12.1333000 0 255 0
2.8179300 -1.7371400 -12.0832000 0 255 0
2.7502400 -1.1169300 -11.9339000 0 255 0
2.7452800 -1.1396900 -11.9145000 0 255 0
2.7524700 -1.5125500 -11.8461000 0 255 0
2.7536800 -1.5364700 -11.8505000 0 255 0
2.7545400 -1.5602800 -11.8535000 0 255 0
2.8532100 -1.7638300 -12.2220000 0 255 0
2.8405300 -1.7503600 -12.1686000 0 255 0
2.7543400 -1.0939200 -11.9501000 0 255 0
2.7474900 -1.4404700 -11.8278000 0 255 0
2.7500600 -1.4647700 -11.8374000 0 255 0
2.7503900 -1.4883500 -11.8384000 0 255 0
2.8522300 -1.7472600 -12.2038000 0 255 0
2.8164800 -1.7216000 -12.0645000 0 255 0
2.8824300 -1.8485500 -12.3099000 0 255 0
2.7444800 -1.3691900 -11.8171000 0 255 0
2.7438600 -1.3924500 -11.8144000 0 255 0
2.7454900 -1.4163800 -11.8204000 0 255 0
2.8146000 -1.7068700 -12.0450000 0 255 0
2.8094500 -1.6982300 -12.0204000 0 255 0
2.7476200 -1.3231500 -11.8297000 0 255 0
2.7460500 -1.3461900 -11.8234000 0 255 0
2.8862600 -1.8233400 -12.2995000 0 255 0
2.8814700 -1.8135700 -12.2752000 0 255 0
2.7507800 -1.2769800 -11.8423000 0 255 0
2.7492000 -1.3000800 -11.8360000 0 255 0
2.8108500 -1.6774400 -12.0061000 0 255 0
2.8773100 -1.8027300 -12.2520000 0 255 0
2.7537900 -1.2306500 -11.8544000 0 255 0
2.7514900 -1.2536400 -11.8453000 0 255 0
2.8089000 -1.6900200 -11.9688000 0 255 0
2.8425900 -1.7561900 -12.0978000 0 255 0
2.7637200 -1.1620400 -11.8933000 0 255 0
2.7601600 -1.1849200 -11.8794000 0 255 0
2.7569700 -1.2078200 -11.8668000 0 255 0
2.7834100 -1.5855000 -11.8729000 0 255 0
2.7890700 -1.6111900 -11.8941000 0 255 0
2.7956500 -1.6373400 -11.9189000 0 255 0
2.8004600 -1.6629000 -11.9369000 0 255 0
2.8519800 -1.7572600 -12.1290000 0 255 0
2.8127100 -1.7039700 -11.9743000 0 255 0
2.7874500 -1.0985400 -11.9967000 0 255 0
2.7746000 -1.1243400 -11.9357000 0 255 0
2.7676400 -1.1391700 -11.9086000 0 255 0
2.7727100 -1.5111600 -11.8330000 0 255 0
2.7721700 -1.5344300 -11.8306000 0 255 0
2.7769000 -1.5595900 -11.8483000 0 255 0
2.8779300 -1.7649300 -12.2198000 0 255 0
2.8695400 -1.7618200 -12.1899000 0 255 0
2.8634000 -1.7546800 -12.1636000 0 255 0
2.8450900 -1.7333800 -12.0852000 0 255 0
2.9082800 -1.8660100 -12.3261000 0 255 0
2.7970900 -1.0720100 -12.0425000 0 255 0
2.7720300 -1.4405400 -11.8312000 0 255 0
2.7711700 -1.4637300 -11.8276000 0 255 0
2.7706200 -1.4870000 -11.8253000 0 255 0
2.8443000 -1.7166100 -12.0674000 0 255 0
2.7691300 -1.3692800 -11.8209000 0 255 0
2.7685000 -1.3925500 -11.8183000 0 255 0
2.7699800 -1.4164400 -11.8236000 0 255 0
2.8339400 -1.6993100 -12.0182000 0 255 0
2.8287800 -1.6906800 -11.9937000 0 255 0
2.9104600 -1.8437800 -12.3130000 0 255 0
2.7723100 -1.3232200 -11.8335000 0 255 0
2.7707200 -1.3462700 -11.8272000 0 255 0
2.8435100 -1.6998400 -12.0497000 0 255 0
2.7755000 -1.2770300 -11.8462000 0 255 0
2.7739000 -1.3001400 -11.8399000 0 255 0
2.9105500 -1.8069000 -12.2799000 0 255 0
2.9144600 -1.8182900 -12.3028000 0 255 0
2.7788400 -1.2307500 -11.8594000 0 255 0
2.7774600 -1.2539800 -11.8539000 0 255 0
2.9058700 -1.7969200 -12.2559000 0 255 0
2.9012100 -1.7869500 -12.2319000 0 255 0
2.8232700 -1.6622700 -11.9328000 0 255 0
2.8311200 -1.6891100 -11.9621000 0 255 0
2.8666500 -1.7581400 -12.0948000 0 255 0
2.9261100 -1.8792800 -12.3130000 0 255 0
2.9283000 -1.9005100 -12.3268000 0 255 0
2.7842700 -1.1847800 -11.8805000 0 255 0
2.7815500 -1.2077900 -11.8700000 0 255 0
2.7826800 -1.5296400 -11.7809000 0 255 0
2.8072300 -1.5853200 -11.8731000 0 255 0
2.8129400 -1.6110200 -11.8944000 0 255 0
2.8186700 -1.6368200 -11.9157000 0 255 0
2.8853700 -1.7606200 -12.1572000 0 255 0
2.8778900 -1.7559200 -12.1289000 0 255 0
2.8643400 -1.7441500 -12.0747000 0 255 0
2.7890300 -1.1621400 -11.8989000 0 255 0
2.7904500 -1.4855300 -11.8108000 0 255 0
2.7944200 -1.5103000 -11.8255000 0 255 0
2.9024700 -1.7663400 -12.2173000 0 255 0
2.8548200 -1.7251900 -12.0270000 0 255 0
2.8407200 -1.7050800 -11.9739000 0 255 0
2.7942800 -1.1503800 -11.8964000 0 255 0
2.7945500 -1.4399800 -11.8269000 0 255 0
2.7934100 -1.4630700 -11.8223000 0 255 0
2.9013900 -1.7499500 -12.1990000 0 255 0
2.9337000 -1.8475600 -12.3084000 0 255 0
2.8353500 -1.6928700 -11.9456000 0 255 0
2.8154300 -1.0982700 -11.9958000 0 255 0
2.8024200 -1.1240700 -11.9348000 0 255 0
2.7939400 -1.3694100 -11.8253000 0 255 0
2.7935100 -1.3927500 -11.8234000 0 255 0
2.7946000 -1.4165400 -11.8273000 0 255 0
2.8896200 -1.8065800 -12.1211000 0 255 0
2.7959800 -1.3230100 -11.8335000 0 255 0
2.7946700 -1.3461400 -11.8283000 0 255 0
2.8932400 -1.7918800 -12.1289000 0 255 0
2.8877900 -1.7903700 -12.1039000 0 255 0
2.8616700 -1.7583800 -11.9976000 0 255 0
2.7986100 -1.2766700 -11.8439000 0 255 0
2.7972900 -1.2998600 -11.8387000 0 255 0
2.9400100 -1.8180100 -12.3018000 0 255 0
2.8924400 -1.7751200 -12.1111000 0 255 0
2.8734600 -1.7550300 -12.0322000 0 255 0
2.8587000 -1.7457300 -11.9766000 0 255 0
2.8038600 -1.2072500 -11.8644000 0 255 0
2.8013800 -1.2302600 -11.8548000 0 255 0
2.7991600 -1.2532800 -11.8462000 0 255 0
2.9321600 -1.7952500 -12.2562000 0 255 0
2.9259200 -1.7880500 -12.2297000 0 255 0
2.8438500 -1.6607800 -11.9203000 0 255 0
2.9108000 -1.7785400 -12.1728000 0 255 0
2.8487500 -1.6863900 -11.9384000 0 255 0
2.8873600 -1.7661100 -12.0867000 0 255 0
2.8808700 -1.7597000 -12.0602000 0 255 0
2.9548800 -1.9011200 -12.3333000 0 255 0
2.8066100 -1.1842500 -11.8750000 0 255 0
2.8226300 -1.5586100 -11.8421000 0 255 0
2.8305100 -1.5849500 -11.8713000 0 255 0
2.8341000 -1.6098300 -11.8844000 0 255 0
2.9411400 -1.7976200 -12.2870000 0 255 0
2.8377000 -1.6347800 -11.8976000 0 255 0
2.9589400 -1.8844500 -12.3402000 0 255 0
2.8173400 -1.4864100 -11.8230000 0 255 0
2.8112700 -1.5078000 -11.8001000 0 255 0
2.8166200 -1.5330400 -11.8198000 0 255 0
2.9273700 -1.7671200 -12.2154000 0 255 0
2.9592600 -1.8655600 -12.3241000 0 255 0
2.8172400 -1.4394800 -11.8232000 0 255 0
2.8169000 -1.4628200 -11.8217000 0 255 0
2.8726300 -1.7074400 -11.9954000 0 255 0
2.8689900 -1.7072400 -11.9723000 0 255 0
2.8404000 -1.1253600 -11.9807000 0 255 0
2.8189700 -1.1771500 -11.8811000 0 255 0
2.8186200 -1.3695000 -11.8291000 0 255 0
2.8180900 -1.3928100 -11.8269000 0 255 0
2.8179400 -1.4162400 -11.8261000 0 255 0
2.9630000 -1.8406400 -12.3134000 0 255 0
2.8456800 -1.0983300 -12.0054000 0 255 0
2.8216900 -1.1500700 -11.8941000 0 255 0
2.8196700 -1.3228100 -11.8335000 0 255 0
2.8192800 -1.3462000 -11.8318000 0 255 0
2.9114000 -1.7862200 -12.1003000 0 255 0
2.8218800 -1.2763600 -11.8422000 0 255 0
2.8207700 -1.2996000 -11.8379000 0 255 0
2.9076300 -1.7748300 -12.0780000 0 255 0
2.9020200 -1.7668000 -12.0529000 0 255 0
2.8956800 -1.7601200 -12.0267000 0 255 0
2.8866800 -1.7583100 -11.9964000 0 255 0
2.8255500 -1.2301500 -11.8564000 0 255 0
2.8230000 -1.2531000 -11.8466000 0 255 0
2.9713400 -1.8075800 -12.3099000 0 255 0
2.8601200 -1.6340600 -11.8924000 0 255 0
2.9506400 -1.7891500 -12.2275000 0 255 0
2.8668700 -1.6602600 -11.9172000 0 255 0
2.9290300 -1.7767900 -12.1540000 0 255 0
2.8727300 -1.6862200 -11.9386000 0 255 0
2.8813900 -1.7134200 -11.9704000 0 255 0
2.9775200 -1.8999200 -12.3251000 0 255 0
2.8317600 -1.1843300 -11.8800000 0 255 0
2.8295500 -1.2074600 -11.8716000 0 255 0
2.8463900 -1.5584300 -11.8423000 0 255 0
2.8499800 -1.5832100 -11.8554000 0 255 0
2.8557000 -1.6088300 -11.8763000 0 255 0
2.9605600 -1.7898900 -12.2597000 0 255 0
2.9841700 -1.8847000 -12.3388000 0 255 0
2.8474700 -1.1401200 -11.9393000 0 255 0
2.8386800 -1.1621100 -11.9061000 0 255 0
2.8411700 -1.4862700 -11.8237000 0 255 0
2.8418500 -1.5099400 -11.8260000 0 255 0
2.8428000 -1.5337200 -11.8293000 0 255 0
2.9728200 -1.7865700 -12.2956000 0 255 0
2.9525600 -1.7674100 -12.2139000 0 255 0
2.8400700 -1.4390300 -11.8201000 0 255 0
2.8394000 -1.4622600 -11.8174000 0 255 0
2.8421700 -1.3692600 -11.8286000 0 255 0
2.8415200 -1.3925500 -11.8260000 0 255 0
2.8409900 -1.4158500 -11.8238000 0 255 0
2.9912300 -1.8540800 -12.3333000 0 255 0
2.8446100 -1.3229300 -11.8381000 0 255 0
2.8433800 -1.3461100 -11.8334000 0 255 0
2.9291300 -1.7812500 -12.0712000 0 255 0
2.9223800 -1.7752100 -12.0444000 0 255 0
2.8736900 -1.0980600 -12.0045000 0 255 0
2.8683500 -1.1250900 -11.9798000 0 255 0
2.8463800 -1.2763500 -11.8451000 0 255 0
2.8452600 -1.2995900 -11.8408000 0 255 0
2.9969900 -1.8256400 -12.3257000 0 255 0
3.0024200 -1.8997600 -12.3254000 0 255 0
2.9115300 -1.7585300 -11.9950000 0 255 0
2.8499100 -1.2300800 -11.8586000 0 255 0
2.8468300 -1.2529200 -11.8470000 0 255 0
2.8821600 -1.6332000 -11.8859000 0 255 0
2.8908000 -1.6600900 -11.9174000 0 255 0
2.8957800 -1.6856900 -11.9354000 0 255 0
2.9035700 -1.7125000 -11.9638000 0 255 0
2.8611100 -1.1852800 -11.9006000 0 255 0
2.8550400 -1.2076300 -11.8779000 0 255 0
2.8693600 -1.5579900 -11.8396000 0 255 0
2.8728300 -1.5827000 -11.8521000 0 255 0
3.0007900 -1.8005900 -12.3149000 0 255 0
2.8783600 -1.6082300 -11.8722000 0 255 0
2.9753600 -1.7902500 -12.2253000 0 255 0
2.9675300 -1.7848500 -12.1872000 0 255 0
2.9563000 -1.7786700 -12.1500000 0 255 0
3.0095800 -1.8846700 -12.3376000 0 255 0
2.9161400 -1.7321500 -11.9855000 0 255 0
2.8714900 -1.1399200 -11.9395000 0 255 0
2.8644500 -1.1622800 -11.9132000 0 255 0
2.8634300 -1.4856300 -11.8186000 0 255 0
2.8637800 -1.5091800 -11.8196000 0 255 0
2.8661700 -1.5334200 -11.8281000 0 255 0
2.9899300 -1.7828900 -12.2646000 0 255 0
2.8637700 -1.4153900 -11.8205000 0 255 0
2.8637300 -1.4388300 -11.8202000 0 255 0
2.8636400 -1.4622500 -11.8196000 0 255 0
2.9779800 -1.7672900 -12.2128000 0 255 0
2.9157300 -1.7148000 -11.9684000 0 255 0
2.8656500 -1.3690000 -11.8279000 0 255 0
2.8641600 -1.3920500 -11.8222000 0 255 0
3.0046000 -1.7754900 -12.3042000 0 255 0
3.0180100 -1.8517500 -12.3342000 0 255 0
2.8686300 -1.3228200 -11.8393000 0 255 0
2.8671400 -1.3459200 -11.8336000 0 255 0
2.9442100 -1.7809500 -12.0383000 0 255 0
2.8678300 -1.2060500 -11.8553000 0 255 0
2.8707900 -1.2763100 -11.8476000 0 255 0
2.8701300 -1.2996800 -11.8450000 0 255 0
2.9261100 -1.7117400 -11.9585000 0 255 0
3.0232900 -1.8977800 -12.3109000 0 255 0
2.9363000 -1.7589300 -11.9934000 0 255 0
2.8993700 -1.0974600 -11.9932000 0 255 0
2.8893700 -1.1237900 -11.9478000 0 255 0
2.8840200 -1.1506400 -11.9233000 0 255 0
2.8764700 -1.2305000 -11.8689000 0 255 0
2.8735000 -1.2534000 -11.8578000 0 255 0
3.0264700 -1.8186800 -12.3307000 0 255 0
2.9060200 -1.6330300 -11.8861000 0 255 0
2.9091500 -1.6578000 -11.8972000 0 255 0
2.9178900 -1.6848000 -11.9288000 0 255 0
2.8868800 -1.1854700 -11.9076000 0 255 0
2.8794600 -1.2075500 -11.8801000 0 255 0
2.8912100 -1.5336900 -11.8331000 0 255 0
2.8947000 -1.5583600 -11.8456000 0 255 0
2.8982000 -1.5830900 -11.8581000 0 255 0
2.9023400 -1.6081100 -11.8730000 0 255 0
2.9815400 -1.7835700 -12.1421000 0 255 0
2.9560200 -1.7531100 -12.0471000 0 255 0
2.9404100 -1.7334900 -11.9831000 0 255 0
2.8949000 -1.1633700 -11.9373000 0 255 0
2.8884900 -1.4858800 -11.8237000 0 255 0
2.8891000 -1.5095300 -11.8257000 0 255 0
3.0303100 -1.7935900 -12.3200000 0 255 0
3.0147400 -1.7840000 -12.2624000 0 255 0
3.0056100 -1.7816500 -12.2317000 0 255 0
2.9956800 -1.7855300 -12.1848000 0 255 0
2.9671900 -1.7592000 -12.0839000 0 255 0
2.8861400 -1.4148200 -11.8158000 0 255 0
2.8864600 -1.4383600 -11.8168000 0 255 0
2.8871800 -1.4620200 -11.8192000 0 255 0
3.0239100 -1.7863500 -12.2933000 0 255 0
2.9397800 -1.7165500 -11.9656000 0 255 0
2.8890200 -1.3687200 -11.8268000 0 255 0
2.8871500 -1.3916600 -11.8197000 0 255 0
3.0408200 -1.8563000 -12.3289000 0 255 0
2.8927700 -1.3227200 -11.8409000 0 255 0
2.8908900 -1.3457400 -11.8338000 0 255 0
2.8972800 -1.2767700 -11.8577000 0 255 0
2.8946500 -1.2996700 -11.8479000 0 255 0
2.9450400 -1.7095600 -11.9403000 0 255 0
3.0481600 -1.8976200 -12.3111000 0 255 0
2.9021800 -1.2307300 -11.8759000 0 255 0
2.8978800 -1.2533400 -11.8600000 0 255 0
2.9225400 -1.6066400 -11.8600000 0 255 0
3.0480000 -1.8255600 -12.3233000 0 255 0
2.9270800 -1.6318300 -11.8762000 0 255 0
2.9302300 -1.6565700 -11.8873000 0 255 0
2.9399700 -1.6839000 -11.9222000 0 255 0
2.9822300 -1.7791600 -12.0565000 0 255 0
2.9730700 -1.7700400 -12.0238000 0 255 0
2.9379700 -1.0986500 -12.0396000 0 255 0
2.9277600 -1.1250800 -11.9937000 0 255 0
2.9164800 -1.1511100 -11.9431000 0 255 0
2.9126900 -1.1856600 -11.9146000 0 255 0
2.9083500 -1.2084400 -11.8986000 0 255 0
2.9133700 -1.5329900 -11.8276000 0 255 0
2.9168800 -1.5576500 -11.8401000 0 255 0
2.9204000 -1.5823600 -11.8526000 0 255 0
3.0047200 -1.7914900 -12.1302000 0 255 0
2.9687600 -1.7537300 -12.0004000 0 255 0
2.9189200 -1.1631700 -11.9375000 0 255 0
2.9108300 -1.4852700 -11.8189000 0 255 0
2.9111800 -1.5088200 -11.8200000 0 255 0
3.0516900 -1.8007900 -12.3123000 0 255 0
2.9603300 -1.7245500 -11.9577000 0 255 0
2.9098400 -1.4146300 -11.8160000 0 255 0
2.9096600 -1.4380200 -11.8151000 0 255 0
2.9106700 -1.4617700 -11.8186000 0 255 0
3.0442100 -1.7769900 -12.2674000 0 255 0
3.0367400 -1.7716400 -12.2392000 0 255 0
2.9124600 -1.3684500 -11.8259000 0 255 0
2.9107700 -1.3914500 -11.8196000 0 255 0
3.0263200 -1.7825700 -12.1873000 0 255 0
3.0656300 -1.8574000 -12.3267000 0 255 0
2.9632800 -1.7012100 -11.9456000 0 255 0
2.9158400 -1.3223600 -11.8385000 0 255 0
2.9141500 -1.3454200 -11.8322000 0 255 0
2.9183100 -1.2759100 -11.8478000 0 255 0
2.9175400 -1.2992600 -11.8448000 0 255 0
2.9475900 -1.6539700 -11.8642000 0 255 0
2.9629700 -1.6833800 -11.9191000 0 255 0
2.9680800 -1.7090200 -11.9371000 0 255 0
3.0732100 -1.8975400 -12.3120000 0 255 0
2.9842400 -1.7626000 -11.9877000 0 255 0
2.9241800 -1.2301200 -11.8694000 0 255 0
2.9181200 -1.2523200 -11.8473000 0 255 0
2.9455100 -1.6061700 -11.8572000 0 255 0
3.0728500 -1.8266700 -12.3211000 0 255 0
2.9470800 -1.6302600 -11.8626000 0 255 0
2.9347800 -1.1850800 -11.9080000 0 255 0
2.9322800 -1.2082400 -11.8988000 0 255 0
2.9379900 -1.5331100 -11.8310000 0 255 0
2.9408200 -1.5575400 -11.8409000 0 255 0
2.9429100 -1.5817500 -11.8482000 0 255 0
3.0052800 -1.7870400 -12.0448000 0 255 0
2.9901600 -1.7640100 -11.9857000 0 255 0
2.9672700 -1.0985500 -12.0440000 0 255 0
2.9557600 -1.1248100 -11.9929000 0 255 0
2.9455300 -1.1510300 -11.9474000 0 255 0
2.9429500 -1.1629700 -11.9377000 0 255 0
2.9388900 -1.1776300 -11.9178000 0 255 0
2.9342000 -1.4615400 -11.8181000 0 255 0
2.9357600 -1.4854700 -11.8235000 0 255 0
2.9362800 -1.5090900 -11.8251000 0 255 0
3.0765700 -1.8018900 -12.3101000 0 255 0
3.0565400 -1.7814200 -12.2294000 0 255 0
2.9892700 -1.7356400 -11.9787000 0 255 0
2.9844600 -1.7261200 -11.9551000 0 255 0
2.9335400 -1.4144500 -11.8162000 0 255 0
2.9336000 -1.4379100 -11.8162000 0 255 0
3.0690600 -1.7780900 -12.2652000 0 255 0
2.9359500 -1.3682000 -11.8252000 0 255 0
2.9344200 -1.3912400 -11.8195000 0 255 0
3.0792900 -1.7788100 -12.2976000 0 255 0
3.0607300 -1.7971900 -12.2121000 0 255 0
3.0924600 -1.8550700 -12.3276000 0 255 0
3.0308600 -1.7721100 -12.1090000 0 255 0
2.9835100 -1.7097600 -11.9372000 0 255 0
2.9390300 -1.3220200 -11.8366000 0 255 0
2.9374900 -1.3451200 -11.8309000 0 255 0
2.9420300 -1.2757000 -11.8477000 0 255 0
2.9403100 -1.2988200 -11.8414000 0 255 0
3.0619900 -1.7723200 -12.1992000 0 255 0
2.9713300 -1.6537800 -11.8642000 0 255 0
2.9783300 -1.6799600 -11.8888000 0 255 0
2.9901500 -1.7081200 -11.9305000 0 255 0
3.0984300 -1.8975300 -12.3134000 0 255 0
2.9499300 -1.2303400 -11.8764000 0 255 0
2.9455400 -1.2529600 -11.8605000 0 255 0
2.9701600 -1.6063000 -11.8605000 0 255 0
3.1010900 -1.8220100 -12.3241000 0 255 0
2.9707900 -1.6300600 -11.8625000 0 255 0
3.0672900 -1.8067200 -12.2059000 0 255 0
2.9556500 -1.2079300 -11.8970000 0 255 0
2.9629900 -1.5333500 -11.8357000 0 255 0
2.9652200 -1.5575800 -11.8434000 0 255 0
2.9679900 -1.5820300 -11.8530000 0 255 0
3.0150200 -1.7524600 -11.9950000 0 255 0
2.9579000 -1.4613600 -11.8183000 0 255 0
2.9592100 -1.4852100 -11.8227000 0 255 0
2.9611400 -1.5092800 -11.8294000 0 255 0
3.0692100 -1.7386800 -12.1978000 0 255 0
3.0891900 -1.7873100 -12.2558000 0 255 0
3.0084900 -1.7278600 -11.9523000 0 255 0
3.0364700 -1.7829000 -12.0487000 0 255 0
3.0251800 -1.7767700 -12.0121000 0 255 0
2.9945900 -1.1261200 -12.0392000 0 255 0
2.9734100 -1.1507700 -11.9466000 0 255 0
2.9678800 -1.1775700 -11.9221000 0 255 0
2.9607300 -1.2039500 -11.8905000 0 255 0
2.9582900 -1.4145600 -11.8201000 0 255 0
2.9575700 -1.4378100 -11.8173000 0 255 0
3.1050100 -1.7969200 -12.3133000 0 255 0
3.0033800 -1.7188700 -11.9283000 0 255 0
2.9594800 -1.3679600 -11.8247000 0 255 0
2.9588200 -1.3912500 -11.8221000 0 255 0
3.1041900 -1.7799200 -12.2953000 0 255 0
3.1152600 -1.8596200 -12.3223000 0 255 0
3.0633500 -1.7892200 -12.1302000 0 255 0
3.0539900 -1.7800300 -12.0972000 0 255 0
2.9613500 -1.3214700 -11.8316000 0 255 0
2.9603100 -1.3446900 -11.8278000 0 255 0
3.0863500 -1.8016800 -12.2047000 0 255 0
2.9655100 -1.2518900 -11.8470000 0 255 0
2.9646000 -1.2752200 -11.8436000 0 255 0
2.9630700 -1.2983800 -11.8380000 0 255 0
3.0810700 -1.7863600 -12.1793000 0 255 0
2.9989800 -1.6550200 -11.8779000 0 255 0
3.0041300 -1.6805200 -11.8957000 0 255 0
3.0141300 -1.7079600 -11.9307000 0 255 0
3.1242400 -1.8977700 -12.3169000 0 255 0
2.9700100 -1.2293200 -11.8631000 0 255 0
2.9968500 -1.6071400 -11.8708000 0 255 0
2.9976800 -1.6309900 -11.8735000 0 255 0
3.0348500 -1.7615900 -11.9860000 0 255 0
2.9827000 -1.1846800 -11.9085000 0 255 0
2.9744300 -1.2066500 -11.8790000 0 255 0
2.9848600 -1.5325600 -11.8292000 0 255 0
2.9878600 -1.5570300 -11.8396000 0 255 0
2.9927800 -1.5821900 -11.8567000 0 255 0
3.1322400 -1.8922100 -12.3249000 0 255 0
3.0336900 -1.7456000 -11.9678000 0 255 0
2.9817000 -1.4612000 -11.8187000 0 255 0
2.9825300 -1.4849100 -11.8214000 0 255 0
2.9836600 -1.5087200 -11.8252000 0 255 0
3.1195800 -1.7972700 -12.2787000 0 255 0
3.1047000 -1.7860500 -12.2228000 0 255 0
3.0323500 -1.7299100 -11.9493000 0 255 0
2.9820800 -1.4144000 -11.8205000 0 255 0
2.9812800 -1.4376300 -11.8175000 0 255 0
3.0285300 -1.7186100 -11.9272000 0 255 0
3.0619600 -1.7871800 -12.0416000 0 255 0
3.0227000 -1.1258500 -12.0383000 0 255 0
3.0121600 -1.1521700 -11.9925000 0 255 0
3.0005000 -1.1780900 -11.9419000 0 255 0
2.9985100 -1.2054400 -11.9329000 0 255 0
2.9817400 -1.3673800 -11.8196000 0 255 0
2.9818800 -1.3908800 -11.8200000 0 255 0
3.1385500 -1.8633100 -12.3178000 0 255 0
3.0864700 -1.7971400 -12.1184000 0 255 0
2.9850000 -1.3212500 -11.8315000 0 255 0
2.9828000 -1.3441800 -11.8235000 0 255 0
2.9892600 -1.2752300 -11.8468000 0 255 0
2.9867300 -1.2981700 -11.8377000 0 255 0
3.1428900 -1.8376700 -12.3076000 0 255 0
3.0257400 -1.6559100 -11.8882000 0 255 0
3.1137500 -1.8035700 -12.2007000 0 255 0
3.1050900 -1.7930900 -12.1690000 0 255 0
3.1198800 -1.8217700 -12.2229000 0 255 0
3.0295800 -1.6809300 -11.9014000 0 255 0
3.0361600 -1.7070500 -11.9241000 0 255 0
2.9976900 -1.2299600 -11.8768000 0 255 0
2.9932300 -1.2525800 -11.8609000 0 255 0
3.0160100 -1.5818300 -11.8549000 0 255 0
3.0206900 -1.6069700 -11.8710000 0 255 0
3.0229000 -1.6313100 -11.8785000 0 255 0
3.1404900 -1.8234100 -12.2873000 0 255 0
3.1325300 -1.8185600 -12.2586000 0 255 0
3.1167100 -1.8089200 -12.2015000 0 255 0
3.0614000 -1.7589700 -11.9869000 0 255 0
3.0065000 -1.5082600 -11.8223000 0 255 0
3.0063300 -1.5316600 -11.8215000 0 255 0
3.0099100 -1.5562900 -11.8338000 0 255 0
3.1566200 -1.8939800 -12.3221000 0 255 0
3.0049800 -1.4608900 -11.8174000 0 255 0
3.0053000 -1.4844400 -11.8183000 0 255 0
3.0606200 -1.7423000 -11.9693000 0 255 0
3.0057700 -1.4142100 -11.8205000 0 255 0
3.0049900 -1.4374500 -11.8176000 0 255 0
3.1612200 -1.8680200 -12.3123000 0 255 0
3.0598400 -1.7256300 -11.9516000 0 255 0
3.0054400 -1.3437200 -11.8199000 0 255 0
3.0040200 -1.3668100 -11.8147000 0 255 0
3.0043400 -1.3903500 -11.8157000 0 255 0
3.0965700 -1.8009700 -12.0669000 0 255 0
3.0401700 -1.1519100 -11.9917000 0 255 0
3.0303300 -1.1781400 -11.9493000 0 255 0
3.0336500 -1.2064400 -11.9632000 0 255 0
3.0099000 -1.2978300 -11.8358000 0 255 0
3.0069500 -1.3206200 -11.8253000 0 255 0
3.1648300 -1.8436500 -12.3011000 0 255 0
3.1137300 -1.7990200 -12.1144000 0 255 0
3.0654200 -1.7326000 -11.9424000 0 255 0
3.0508200 -1.1255800 -12.0375000 0 255 0
3.0128700 -1.2750000 -11.8463000 0 255 0
3.0484600 -1.6553300 -11.8844000 0 255 0
3.1549400 -1.8236900 -12.2528000 0 255 0
3.1452900 -1.8217200 -12.2217000 0 255 0
3.0535000 -1.6807700 -11.9016000 0 255 0
3.0592200 -1.7065500 -11.9212000 0 255 0
3.0196500 -1.2293500 -11.8703000 0 255 0
3.0180400 -1.2526000 -11.8645000 0 255 0
3.0349900 -1.5800400 -11.8384000 0 255 0
3.0392100 -1.6049700 -11.8528000 0 255 0
3.0439200 -1.6301400 -11.8689000 0 255 0
3.1411700 -1.8054700 -12.1967000 0 255 0
3.1316200 -1.7961900 -12.1634000 0 255 0
3.0827500 -1.7653800 -11.9803000 0 255 0
3.0296800 -1.5079200 -11.8206000 0 255 0
3.0320900 -1.5321400 -11.8287000 0 255 0
3.0346400 -1.5564400 -11.8374000 0 255 0
3.1327100 -1.7883800 -12.1531000 0 255 0
3.1814000 -1.8950900 -12.3199000 0 255 0
3.0290300 -1.4608100 -11.8187000 0 255 0
3.0286400 -1.4841500 -11.8171000 0 255 0
3.0850600 -1.7433700 -11.9671000 0 255 0
3.0535400 -1.1410100 -11.9892000 0 255 0
3.0294200 -1.4140100 -11.8204000 0 255 0
3.0297200 -1.4375500 -11.8213000 0 255 0
3.1499400 -1.7773200 -12.1953000 0 255 0
3.1837800 -1.8728600 -12.3068000 0 255 0
3.0842800 -1.7267000 -11.9494000 0 255 0
3.0274100 -1.3430800 -11.8139000 0 255 0
3.0274100 -1.3665400 -11.8138000 0 255 0
3.0280600 -1.3901700 -11.8158000 0 255 0
3.1204400 -1.8159200 -12.0635000 0 255 0
3.1083600 -1.8004500 -12.0128000 0 255 0
3.0328700 -1.2974500 -11.8331000 0 255 0
3.0293400 -1.3200900 -11.8208000 0 255 0
3.1881000 -1.8473900 -12.2965000 0 255 0
3.0864500 -1.7313000 -11.9324000 0 255 0
3.1329500 -1.8127300 -12.0984000 0 255 0
3.2000100 -1.9223300 -12.3209000 0 255 0
3.1173100 -1.8032000 -12.0424000 0 255 0
3.1982500 -1.9461500 -12.3146000 0 255 0
3.0575000 -1.1777700 -11.9454000 0 255 0
3.0542300 -1.2049200 -11.9312000 0 255 0
3.0364100 -1.2747500 -11.8456000 0 255 0
3.0648200 -1.6289500 -11.8590000 0 255 0
3.0705700 -1.6545300 -11.8785000 0 255 0
3.1790500 -1.8259400 -12.2496000 0 255 0
3.1705400 -1.8219600 -12.2203000 0 255 0
3.0768300 -1.6803900 -11.8998000 0 255 0
3.0831200 -1.7063600 -11.9212000 0 255 0
3.1981600 -1.9094400 -12.3057000 0 255 0
3.1110700 -1.7778000 -12.0002000 0 255 0
3.0826900 -1.1258400 -12.0524000 0 255 0
3.0681800 -1.1516500 -11.9908000 0 255 0
3.0523200 -1.2310300 -11.9009000 0 255 0
3.0438500 -1.2528400 -11.8715000 0 255 0
3.0544700 -1.5784400 -11.8238000 0 255 0
3.0591100 -1.6034700 -11.8396000 0 255 0
3.1063000 -1.7679800 -11.9768000 0 255 0
3.0529700 -1.5076100 -11.8193000 0 255 0
3.0537500 -1.5313000 -11.8217000 0 255 0
3.0564700 -1.5556400 -11.8309000 0 255 0
3.1692200 -1.8059400 -12.2017000 0 255 0
3.1573900 -1.7894700 -12.1509000 0 255 0
3.0894000 -1.7431600 -11.9029000 0 255 0
3.0527400 -1.4606300 -11.8188000 0 255 0
3.0522900 -1.4839500 -11.8171000 0 255 0
3.2069800 -1.8766300 -12.3022000 0 255 0
3.1095000 -1.7444500 -11.9649000 0 255 0
3.0994300 -1.7438100 -11.9339000 0 255 0
3.0530900 -1.4138100 -11.8204000 0 255 0
3.0534000 -1.4373600 -11.8213000 0 255 0
3.1751200 -1.7777400 -12.1937000 0 255 0
3.0529400 -1.3433500 -11.8203000 0 255 0
3.0514500 -1.3664400 -11.8150000 0 255 0
3.0517700 -1.3899900 -11.8160000 0 255 0
3.0978800 -1.7105200 -11.8986000 0 255 0
3.1527900 -1.8217900 -12.0893000 0 255 0
3.0574900 -1.2974600 -11.8362000 0 255 0
3.0544800 -1.3202500 -11.8258000 0 255 0
3.2137600 -1.8471200 -12.2955000 0 255 0
3.1017100 -1.7042100 -11.9031000 0 255 0
3.1169700 -1.7589700 -11.9524000 0 255 0
3.2210500 -1.9205200 -12.3079000 0 255 0
3.2210100 -1.9450600 -12.3075000 0 255 0
3.0605100 -1.2746200 -11.8467000 0 255 0
3.0852200 -1.6276000 -11.8475000 0 255 0
3.0938600 -1.6541600 -11.8767000 0 255 0
3.1960100 -1.8218600 -12.2192000 0 255 0
3.0989700 -1.6795900 -11.8939000 0 255 0
3.1070100 -1.7139700 -11.9162000 0 255 0
3.1513600 -1.8040800 -12.0599000 0 255 0
3.1366100 -1.7797400 -12.0021000 0 255 0
3.0783900 -1.2040400 -11.9149000 0 255 0
3.0762700 -1.2308400 -11.9012000 0 255 0
3.0677300 -1.2526500 -11.8717000 0 255 0
3.0778300 -1.5546900 -11.8229000 0 255 0
3.0782100 -1.5782700 -11.8240000 0 255 0
3.0785800 -1.6018500 -11.8251000 0 255 0
3.2150200 -1.8267300 -12.2807000 0 255 0
3.2054900 -1.8242900 -12.2499000 0 255 0
3.1292600 -1.7676200 -11.9734000 0 255 0
3.1145200 -1.7608400 -11.9183000 0 255 0
3.0961900 -1.1513900 -11.9899000 0 255 0
3.0854000 -1.1775100 -11.9445000 0 255 0
3.0808900 -1.2080800 -11.9172000 0 255 0
3.0758500 -1.5071700 -11.8165000 0 255 0
3.0770300 -1.5309900 -11.8204000 0 255 0
3.1820800 -1.7905700 -12.1487000 0 255 0
3.2319000 -1.8957900 -12.3169000 0 255 0
3.1269400 -1.7575300 -11.9526000 0 255 0
3.0760400 -1.4603300 -11.8175000 0 255 0
3.0755700 -1.4836400 -11.8157000 0 255 0
3.2017000 -1.7940900 -12.2108000 0 255 0
3.2341000 -1.9052900 -12.3140000 0 255 0
3.2321900 -1.9132000 -12.2993000 0 255 0
3.0759600 -1.3899300 -11.8177000 0 255 0
3.0767900 -1.4136200 -11.8204000 0 255 0
3.0761300 -1.4369000 -11.8180000 0 255 0
3.2001700 -1.7784000 -12.1919000 0 255 0
3.2366400 -1.8697400 -12.3072000 0 255 0
3.0766900 -1.3431700 -11.8205000 0 255 0
3.0751700 -1.3662600 -11.8152000 0 255 0
3.1866700 -1.8252900 -12.1173000 0 255 0
3.1773200 -1.8228700 -12.0871000 0 255 0
3.0819200 -1.2974200 -11.8386000 0 255 0
3.0793000 -1.3203200 -11.8296000 0 255 0
3.1240400 -1.7034600 -11.8979000 0 255 0
3.1344500 -1.7309800 -11.9328000 0 255 0
3.2417200 -1.9185700 -12.2939000 0 255 0
3.2421000 -1.9432700 -12.2949000 0 255 0
3.0845500 -1.2744800 -11.8477000 0 255 0
3.1023500 -1.6016900 -11.8253000 0 255 0
3.1090200 -1.6274300 -11.8477000 0 255 0
3.1143000 -1.6527900 -11.8653000 0 255 0
3.1186800 -1.6779100 -11.8800000 0 255 0
3.0913000 -1.2287800 -11.8709000 0 255 0
3.0896400 -1.2520300 -11.8652000 0 255 0
3.1015400 -1.5545100 -11.8230000 0 255 0
3.1038600 -1.5787300 -11.8307000 0 255 0
3.2455700 -1.8367400 -12.3036000 0 255 0
3.1697600 -1.7956900 -12.0245000 0 255 0
3.1614600 -1.7848200 -11.9941000 0 255 0
3.1010300 -1.2305100 -11.8922000 0 255 0
3.1003100 -1.5072200 -11.8192000 0 255 0
3.1011700 -1.5309400 -11.8219000 0 255 0
3.2294900 -1.8084800 -12.2297000 0 255 0
3.1955300 -1.8046700 -12.1025000 0 255 0
3.1563300 -1.7694800 -11.9694000 0 255 0
3.1242100 -1.1511200 -11.9891000 0 255 0
3.1133100 -1.1772500 -11.9436000 0 255 0
3.1062200 -1.2037800 -11.9140000 0 255 0
3.0992900 -1.4600100 -11.8161000 0 255 0
3.0991800 -1.4834300 -11.8155000 0 255 0
3.2486700 -1.8133100 -12.2914000 0 255 0
3.2390600 -1.8108900 -12.2605000 0 255 0
3.0992000 -1.3896200 -11.8162000 0 255 0
3.1004900 -1.4134300 -11.8205000 0 255 0
3.0998400 -1.4367100 -11.8181000 0 255 0
3.2301300 -1.7891300 -12.2139000 0 255 0
3.1584100 -1.7466000 -11.9605000 0 255 0
3.1019400 -1.3433600 -11.8258000 0 255 0
3.1006200 -1.3665100 -11.8212000 0 255 0
3.2252800 -1.7789600 -12.1901000 0 255 0
3.2018600 -1.8239600 -12.0849000 0 255 0
3.2664300 -1.9428800 -12.2933000 0 255 0
3.1072200 -1.2975800 -11.8439000 0 255 0
3.1045700 -1.3204900 -11.8348000 0 255 0
3.2663700 -1.8628400 -12.3122000 0 255 0
3.1378300 -1.6760600 -11.8643000 0 255 0
3.1459500 -1.7025600 -11.8913000 0 255 0
3.1584600 -1.7308300 -11.9331000 0 255 0
3.1686400 -1.7584000 -11.9670000 0 255 0
3.2694200 -1.9196100 -12.3036000 0 255 0
3.1119300 -1.2515000 -11.8600000 0 255 0
3.1085400 -1.2743300 -11.8485000 0 255 0
3.1288800 -1.6024500 -11.8349000 0 255 0
3.1328300 -1.6272700 -11.8479000 0 255 0
3.1367900 -1.6521600 -11.8610000 0 255 0
3.1600400 -1.7486300 -11.9259000 0 255 0
3.1252500 -1.5543300 -11.8231000 0 255 0
3.1278500 -1.5786300 -11.8316000 0 255 0
3.2322800 -1.8095900 -12.1621000 0 255 0
3.1245000 -1.5071900 -11.8209000 0 255 0
3.1254500 -1.5309300 -11.8239000 0 255 0
3.2753800 -1.8297900 -12.3086000 0 255 0
3.2822200 -1.8968700 -12.3135000 0 255 0
3.1771900 -1.7572800 -11.9503000 0 255 0
3.2046600 -1.8093300 -12.0500000 0 255 0
3.1950900 -1.8001300 -12.0173000 0 255 0
3.1793200 -1.7771800 -11.9580000 0 255 0
3.1855500 -1.7909700 -11.9846000 0 255 0
3.1288100 -1.2302500 -11.8914000 0 255 0
3.1230800 -1.4364000 -11.8166000 0 255 0
3.1228800 -1.4598000 -11.8158000 0 255 0
3.1232000 -1.4833400 -11.8167000 0 255 0
3.2639200 -1.8119900 -12.2583000 0 255 0
3.2557600 -1.8071600 -12.2297000 0 255 0
3.2228100 -1.8065600 -12.0986000 0 255 0
3.1726400 -1.7470200 -11.9273000 0 255 0
3.1522300 -1.1508600 -11.9882000 0 255 0
3.1412200 -1.1769900 -11.9428000 0 255 0
3.1340600 -1.2035300 -11.9131000 0 255 0
3.1229200 -1.3894300 -11.8163000 0 255 0
3.1232400 -1.4129800 -11.8173000 0 255 0
3.2794900 -1.8047000 -12.2979000 0 255 0
3.2525100 -1.7942800 -12.2082000 0 255 0
3.1272100 -1.3435400 -11.8310000 0 255 0
3.1245600 -1.3663800 -11.8220000 0 255 0
3.2882800 -1.8687600 -12.3056000 0 255 0
3.2884000 -1.9130500 -12.2996000 0 255 0
3.2264000 -1.8250500 -12.0827000 0 255 0
3.2901900 -1.9422600 -12.2899000 0 255 0
3.1325400 -1.2977400 -11.8491000 0 255 0
3.1298700 -1.3206700 -11.8400000 0 255 0
3.1613900 -1.6758000 -11.8636000 0 255 0
3.2707800 -1.8425800 -12.2300000 0 255 0
3.1698600 -1.7024100 -11.8915000 0 255 0
3.1783400 -1.7291400 -11.9195000 0 255 0
3.2368200 -1.8258700 -12.1143000 0 255 0
3.1882100 -1.7565300 -11.9521000 0 255 0
3.2904700 -1.9178600 -12.2910000 0 255 0
3.1361200 -1.2749800 -11.8612000 0 255 0
3.1497100 -1.6013100 -11.8253000 0 255 0
3.1530200 -1.6258900 -11.8361000 0 255 0
3.1577700 -1.6510100 -11.8517000 0 255 0
3.2690400 -1.8272200 -12.2107000 0 255 0
3.1390900 -1.2284000 -11.8714000 0 255 0
3.1394100 -1.2520900 -11.8724000 0 255 0
3.1484100 -1.5539800 -11.8213000 0 255 0
3.1493300 -1.5777300 -11.8242000 0 255 0
3.2569800 -1.8106900 -12.1599000 0 255 0
3.1591000 -1.1849400 -11.9387000 0 255 0
3.1463300 -1.4829900 -11.8149000 0 255 0
3.1475900 -1.5068200 -11.8189000 0 255 0
3.1485700 -1.5305700 -11.8220000 0 255 0
3.2993100 -1.8325100 -12.3050000 0 255 0
3.1458300 -1.4359500 -11.8135000 0 255 0
3.1461200 -1.4594800 -11.8143000 0 255 0
3.2240400 -1.7994400 -12.0166000 0 255 0
3.2035700 -1.7701800 -11.9466000 0 255 0
3.1466300 -1.3892400 -11.8164000 0 255 0
3.1459900 -1.4125400 -11.8142000 0 255 0
3.3044400 -1.8058100 -12.2956000 0 255 0
3.2766200 -1.7965300 -12.2050000 0 255 0
3.3072000 -1.8794700 -12.2948000 0 255 0
3.2073400 -1.7487500 -11.9562000 0 255 0
3.2458000 -1.8144500 -12.0868000 0 255 0
3.2104800 -1.7732200 -11.9616000 0 255 0
3.1931900 -1.1524600 -12.0398000 0 255 0
3.1691300 -1.1767300 -11.9419000 0 255 0
3.1619000 -1.2032700 -11.9123000 0 255 0
3.1510100 -1.3433600 -11.8312000 0 255 0
3.1483300 -1.3662000 -11.8222000 0 255 0
3.2065500 -1.7320600 -11.9385000 0 255 0
3.1563800 -1.2975600 -11.8493000 0 255 0
3.1536900 -1.3204900 -11.8403000 0 255 0
3.1796000 -1.6501600 -11.8453000 0 255 0
3.1848400 -1.6755000 -11.8624000 0 255 0
3.2951400 -1.8443500 -12.2272000 0 255 0
3.1917300 -1.7015100 -11.8850000 0 255 0
3.1977000 -1.7272900 -11.9045000 0 255 0
3.2621100 -1.8258200 -12.1131000 0 255 0
3.2557800 -1.8181700 -12.0874000 0 255 0
3.3100200 -1.9155100 -12.2737000 0 255 0
3.1606000 -1.2749300 -11.8635000 0 255 0
3.1734200 -1.6011300 -11.8253000 0 255 0
3.1761100 -1.6254900 -11.8340000 0 255 0
3.2896000 -1.8351900 -12.2025000 0 255 0
3.2057800 -1.7153800 -11.9208000 0 255 0
3.1721400 -1.2300800 -11.9021000 0 255 0
3.1663600 -1.2525500 -11.8827000 0 255 0
3.1710600 -1.5300200 -11.8180000 0 255 0
3.1720500 -1.5537800 -11.8211000 0 255 0
3.1730400 -1.5775500 -11.8242000 0 255 0
3.3182600 -1.8432900 -12.2941000 0 255 0
3.2898400 -1.8166100 -12.1861000 0 255 0
3.1848100 -1.1850600 -11.9444000 0 255 0
3.1769300 -1.2073100 -11.9181000 0 255 0
3.1694000 -1.4826300 -11.8128000 0 255 0
3.1700800 -1.5062700 -11.8149000 0 255 0
3.3144700 -1.8311600 -12.2718000 0 255 0
3.1689700 -1.4356100 -11.8117000 0 255 0
3.1693700 -1.4591700 -11.8129000 0 255 0
3.2273500 -1.7580100 -11.9431000 0 255 0
3.2467900 -1.8074700 -12.0047000 0 255 0
3.1703500 -1.3890500 -11.8165000 0 255 0
3.1696100 -1.4123300 -11.8139000 0 255 0
3.2318100 -1.7498200 -11.9540000 0 255 0
3.2581700 -1.8142900 -12.0406000 0 255 0
3.2397200 -1.7947100 -11.9767000 0 255 0
3.1748100 -1.3431800 -11.8314000 0 255 0
3.1721000 -1.3660200 -11.8224000 0 255 0
3.3360000 -1.8741800 -12.2984000 0 255 0
3.2162800 -1.7251800 -11.8871000 0 255 0
3.3339600 -1.9149900 -12.2711000 0 255 0
3.2375600 -1.7750800 -11.9576000 0 255 0
3.2192500 -1.1519000 -12.0305000 0 255 0
3.1970500 -1.1764700 -11.9411000 0 255 0
3.1802300 -1.2973800 -11.8496000 0 255 0
3.1775200 -1.3203000 -11.8405000 0 255 0
3.2015700 -1.6493800 -11.8395000 0 255 0
3.2080800 -1.6751300 -11.8607000 0 255 0
3.3199200 -1.8454500 -12.2250000 0 255 0
3.2123400 -1.7001800 -11.8744000 0 255 0
3.2310200 -1.7331400 -11.9363000 0 255 0
3.1872200 -1.2517100 -11.8728000 0 255 0
3.1838800 -1.2746100 -11.8617000 0 255 0
3.1971200 -1.6009500 -11.8253000 0 255 0
3.1975100 -1.6245400 -11.8264000 0 255 0
3.2302500 -1.7164500 -11.9186000 0 255 0
3.2852300 -1.8112800 -12.0921000 0 255 0
3.2767900 -1.8070600 -12.0636000 0 255 0
3.2677000 -1.8040000 -12.0341000 0 255 0
3.2520800 -1.7938200 -11.9790000 0 255 0
3.1905800 -1.2287700 -11.8840000 0 255 0
3.1952200 -1.5299700 -11.8195000 0 255 0
3.1963300 -1.5537700 -11.8230000 0 255 0
3.1974500 -1.5775900 -11.8265000 0 255 0
3.3185800 -1.8294300 -12.2063000 0 255 0
3.3064100 -1.8128800 -12.1555000 0 255 0
3.2982400 -1.8080800 -12.1272000 0 255 0
3.2622500 -1.7949800 -12.0099000 0 255 0
3.1968300 -1.2063200 -11.9047000 0 255 0
3.1923900 -1.4822400 -11.8106000 0 255 0
3.1935300 -1.5060200 -11.8141000 0 255 0
3.3476500 -1.8371500 -12.2984000 0 255 0
3.2522500 -1.7755600 -11.9627000 0 255 0
3.1929300 -1.4354900 -11.8126000 0 255 0
3.1929700 -1.4589600 -11.8126000 0 255 0
3.3220100 -1.8056400 -12.1945000 0 255 0
3.1949600 -1.3891000 -11.8195000 0 255 0
3.1937400 -1.4122500 -11.8154000 0 255 0
3.2562800 -1.7509000 -11.9518000 0 255 0
3.1981000 -1.3428800 -11.8300000 0 255 0
3.1957100 -1.3658000 -11.8221000 0 255 0
3.3543500 -1.8080300 -12.2912000 0 255 0
3.2334000 -1.6990300 -11.8655000 0 255 0
3.2364200 -1.7236700 -11.8751000 0 255 0
3.3130700 -1.8432600 -12.1278000 0 255 0
3.3681800 -1.9432200 -12.3015000 0 255 0
3.2028900 -1.2969300 -11.8459000 0 255 0
3.2004900 -1.3199300 -11.8379000 0 255 0
3.2247600 -1.6490100 -11.8378000 0 255 0
3.3658600 -1.8672900 -12.3033000 0 255 0
3.2300700 -1.6743300 -11.8548000 0 255 0
3.3441600 -1.8474100 -12.2220000 0 255 0
3.2555000 -1.7342100 -11.9341000 0 255 0
3.2963500 -1.8163500 -12.0543000 0 255 0
3.2887500 -1.8107700 -12.0271000 0 255 0
3.2794800 -1.8079900 -11.9975000 0 255 0
3.2188800 -1.2029700 -11.9157000 0 255 0
3.2123900 -1.2295300 -11.8897000 0 255 0
3.2080400 -1.2508800 -11.8629000 0 255 0
3.2040600 -1.2736200 -11.8498000 0 255 0
3.2212300 -1.5774300 -11.8268000 0 255 0
3.2208100 -1.6007600 -11.8252000 0 255 0
3.2212100 -1.6243500 -11.8264000 0 255 0
3.3416500 -1.8332800 -12.2017000 0 255 0
3.2525000 -1.7212400 -11.9133000 0 255 0
3.3088600 -1.8139600 -12.0886000 0 255 0
3.3715000 -1.9171900 -12.2903000 0 255 0
3.2481900 -1.1517500 -12.0328000 0 255 0
3.2249700 -1.1762100 -11.9402000 0 255 0
3.2195800 -1.5299900 -11.8217000 0 255 0
3.2208800 -1.5538500 -11.8258000 0 255 0
3.2513200 -1.7052400 -11.8951000 0 255 0
3.3214400 -1.8115700 -12.1230000 0 255 0
3.2781800 -1.7921700 -11.9792000 0 255 0
3.2228900 -1.2065300 -11.9117000 0 255 0
3.2166500 -1.4822200 -11.8124000 0 255 0
3.2175400 -1.5059300 -11.8152000 0 255 0
3.3642200 -1.8333800 -12.2674000 0 255 0
3.2751000 -1.7793000 -11.9583000 0 255 0
3.2350800 -1.1850600 -11.9517000 0 255 0
3.2176100 -1.4355700 -11.8158000 0 255 0
3.2168700 -1.4588300 -11.8133000 0 255 0
3.3801300 -1.8261600 -12.3070000 0 255 0
3.3468100 -1.8067400 -12.1923000 0 255 0
3.2197000 -1.3891600 -11.8228000 0 255 0
3.2180400 -1.4122200 -11.8173000 0 255 0
3.2775400 -1.7573100 -11.9451000 0 255 0
3.2231300 -1.3430000 -11.8342000 0 255 0
3.2208700 -1.3659600 -11.8267000 0 255 0
3.3703000 -1.8645500 -12.2385000 0 255 0
3.2551100 -1.6981200 -11.8587000 0 255 0
3.2773400 -1.7396600 -11.9283000 0 255 0
3.2578600 -1.7226300 -11.8674000 0 255 0
3.3372900 -1.8450200 -12.1250000 0 255 0
3.3150300 -1.8269700 -12.0440000 0 255 0
3.3891100 -1.9414400 -12.2890000 0 255 0
3.3057400 -1.8241200 -12.0144000 0 255 0
3.2281100 -1.2970500 -11.8506000 0 255 0
3.2256900 -1.3200600 -11.8426000 0 255 0
3.2448900 -1.6241600 -11.8263000 0 255 0
3.2481500 -1.6487200 -11.8366000 0 255 0
3.3907500 -1.8684000 -12.3011000 0 255 0
3.2505900 -1.6730400 -11.8443000 0 255 0
3.3604500 -1.8439800 -12.1910000 0 255 0
3.3352600 -1.8302300 -12.1055000 0 255 0
3.3279100 -1.8240900 -12.0786000 0 255 0
3.3046800 -1.8078800 -11.9964000 0 255 0
3.2350500 -1.2513400 -11.8733000 0 255 0
3.2316500 -1.2742400 -11.8621000 0 255 0
3.2440600 -1.5769700 -11.8239000 0 255 0
3.2437100 -1.6003200 -11.8226000 0 255 0
3.3566600 -1.8319200 -12.1690000 0 255 0
3.2750600 -1.7254900 -11.9085000 0 255 0
3.3962800 -1.9183000 -12.2881000 0 255 0
3.2493700 -1.2031300 -11.9252000 0 255 0
3.2401900 -1.2292700 -11.8888000 0 255 0
3.2422400 -1.5294900 -11.8183000 0 255 0
3.2436200 -1.5533700 -11.8226000 0 255 0
3.2726300 -1.7115700 -11.8886000 0 255 0
3.2647800 -1.1777300 -11.9861000 0 255 0
3.2394800 -1.4817900 -11.8097000 0 255 0
3.2401400 -1.5054200 -11.8117000 0 255 0
3.3031100 -1.7745300 -11.9610000 0 255 0
3.2419700 -1.4355600 -11.8179000 0 255 0
3.2406100 -1.4586500 -11.8134000 0 255 0
3.4051000 -1.8272700 -12.3048000 0 255 0
3.3126700 -1.7768400 -11.9909000 0 255 0
3.2985200 -1.7641200 -11.9381000 0 255 0
3.2822700 -1.1650800 -12.0269000 0 255 0
3.2447300 -1.3893000 -11.8271000 0 255 0
3.2437100 -1.4125400 -11.8237000 0 255 0
3.3012200 -1.7768000 -11.9296000 0 255 0
3.4047000 -1.9619500 -12.2593000 0 255 0
3.2594400 -1.1585500 -11.9313000 0 255 0
3.2478600 -1.3430300 -11.8373000 0 255 0
3.2464300 -1.3662100 -11.8326000 0 255 0
3.4105800 -1.8775100 -12.2917000 0 255 0
3.2800200 -1.6983300 -11.8623000 0 255 0
3.3800500 -1.8532900 -12.1816000 0 255 0
3.2867000 -1.7242500 -11.8835000 0 255 0
3.2982200 -1.7466600 -11.9211000 0 255 0
3.3623300 -1.8454500 -12.1234000 0 255 0
3.2923500 -1.7498900 -11.9014000 0 255 0
3.3549300 -1.8392800 -12.0964000 0 255 0
3.4122600 -1.9405900 -12.2837000 0 255 0
3.2567200 -1.2304500 -11.8884000 0 255 0
3.2521200 -1.2969000 -11.8512000 0 255 0
3.2499500 -1.3199800 -11.8442000 0 255 0
3.2678400 -1.6237300 -11.8238000 0 255 0
3.2690800 -1.6476100 -11.8277000 0 255 0
3.2733600 -1.6725300 -11.8412000 0 255 0
3.3894300 -1.8564700 -12.2116000 0 255 0
3.3739000 -1.8450000 -12.1563000 0 255 0
3.3492000 -1.8304800 -12.0718000 0 255 0
3.2561700 -1.2741900 -11.8644000 0 255 0
3.2659100 -1.5762100 -11.8180000 0 255 0
3.2658200 -1.5996300 -11.8175000 0 255 0
3.4148200 -1.8525500 -12.2810000 0 255 0
3.3454500 -1.8185100 -12.0500000 0 255 0
3.3118700 -1.7935900 -11.9241000 0 255 0
3.2712600 -1.2299500 -11.9131000 0 255 0
3.2621200 -1.2518000 -11.8836000 0 255 0
3.2639300 -1.5287100 -11.8119000 0 255 0
3.2653200 -1.5525800 -11.8162000 0 255 0
3.3426900 -1.8049700 -12.0295000 0 255 0
3.2804500 -1.2079600 -11.9429000 0 255 0
3.2620400 -1.4812900 -11.8061000 0 255 0
3.2625400 -1.5048700 -11.8076000 0 255 0
3.4312000 -1.9035300 -12.3003000 0 255 0
3.2928200 -1.1774700 -11.9853000 0 255 0
3.2799100 -1.2032900 -11.9347000 0 255 0
3.2646300 -1.4350900 -11.8146000 0 255 0
3.2632100 -1.4581700 -11.8099000 0 255 0
3.3468300 -1.7802600 -12.0186000 0 255 0
3.2675900 -1.3888900 -11.8243000 0 255 0
3.2653300 -1.4118000 -11.8169000 0 255 0
3.3411200 -1.7715300 -11.9941000 0 255 0
3.3141800 -1.7489700 -11.8949000 0 255 0
3.3273900 -1.7774400 -11.9366000 0 255 0
3.3407100 -1.8061500 -11.9787000 0 255 0
3.4295100 -1.9618100 -12.2595000 0 255 0
3.2803900 -1.1711100 -11.9148000 0 255 0
3.2723200 -1.3430000 -11.8396000 0 255 0
3.2703900 -1.3660700 -11.8333000 0 255 0
3.2965500 -1.6721600 -11.8394000 0 255 0
3.4354500 -1.8786300 -12.2895000 0 255 0
3.3007100 -1.6970800 -11.8525000 0 255 0
3.3048800 -1.7220700 -11.8656000 0 255 0
3.3873100 -1.8460100 -12.1217000 0 255 0
3.4364900 -1.9401800 -12.2819000 0 255 0
3.2759800 -1.2967200 -11.8514000 0 255 0
3.2738000 -1.3198000 -11.8444000 0 255 0
3.2907800 -1.6233100 -11.8214000 0 255 0
3.2928200 -1.6474300 -11.8277000 0 255 0
3.4178100 -1.8518600 -12.2144000 0 255 0
3.3971000 -1.8484900 -12.1520000 0 255 0
3.3805300 -1.8387800 -12.0956000 0 255 0
3.2860700 -1.2516200 -11.8838000 0 255 0
3.2800700 -1.2740100 -11.8646000 0 255 0
3.2877400 -1.5754600 -11.8120000 0 255 0
3.2887400 -1.5992100 -11.8151000 0 255 0
3.4366700 -1.8584800 -12.2745000 0 255 0
3.4297600 -1.8511600 -12.2479000 0 255 0
3.4099500 -1.8461800 -12.1866000 0 255 0
3.3801600 -1.8213300 -12.0784000 0 255 0
3.2952800 -1.2297600 -11.9134000 0 255 0
3.2841900 -1.5041100 -11.8011000 0 255 0
3.2855900 -1.5279400 -11.8054000 0 255 0
3.2869900 -1.5517900 -11.8098000 0 255 0
3.4516600 -1.9437400 -12.2911000 0 255 0
3.3056200 -1.2079700 -11.9465000 0 255 0
3.2856000 -1.4576300 -11.8058000 0 255 0
3.2844100 -1.4807400 -11.8019000 0 255 0
3.3819200 -1.8004600 -12.0642000 0 255 0
3.3391000 -1.7929600 -11.9210000 0 255 0
3.3095800 -1.1848700 -11.9592000 0 255 0
3.2999900 -1.2089700 -11.9118000 0 255 0
3.2890100 -1.4116100 -11.8168000 0 255 0
3.2870600 -1.4345700 -11.8106000 0 255 0
3.3796400 -1.7860900 -12.0444000 0 255 0
3.4556400 -1.9571300 -12.2738000 0 255 0
3.3208700 -1.1772100 -11.9844000 0 255 0
3.3164300 -1.2043700 -11.9670000 0 255 0
3.2919200 -1.3888500 -11.8262000 0 255 0
3.3402800 -1.7495900 -11.9019000 0 255 0
3.3514400 -1.7772900 -11.9369000 0 255 0
3.3648600 -1.8060000 -11.9790000 0 255 0
3.4543200 -1.9616700 -12.2597000 0 255 0
3.2975700 -1.3431500 -11.8443000 0 255 0
3.2936900 -1.3657700 -11.8319000 0 255 0
3.3170300 -1.6708900 -11.8291000 0 255 0
3.4577700 -1.8837300 -12.2837000 0 255 0
3.3245600 -1.6969300 -11.8527000 0 255 0
3.3345400 -1.7239500 -11.8840000 0 255 0
3.4116100 -1.8476300 -12.1190000 0 255 0
3.3086600 -1.1724700 -11.9113000 0 255 0
3.2997200 -1.2965100 -11.8512000 0 255 0
3.2996500 -1.3200700 -11.8509000 0 255 0
3.3151500 -1.6233400 -11.8235000 0 255 0
3.3165500 -1.6472600 -11.8278000 0 255 0
3.4544100 -1.8707900 -12.2622000 0 255 0
3.4233000 -1.8471900 -12.1519000 0 255 0
3.4066400 -1.8374800 -12.0955000 0 255 0
3.3100200 -1.2514300 -11.8841000 0 255 0
3.3039800 -1.2738200 -11.8648000 0 255 0
3.3086300 -1.5510000 -11.8033000 0 255 0
3.3105300 -1.5750000 -11.8092000 0 255 0
3.3128400 -1.5991500 -11.8163000 0 255 0
3.3863200 -1.7572500 -12.0369000 0 255 0
3.4528600 -1.8550100 -12.2433000 0 255 0
3.4766000 -1.9727100 -12.2897000 0 255 0
3.3171700 -1.2291600 -11.9068000 0 255 0
3.3070600 -1.5037000 -11.7986000 0 255 0
3.3072300 -1.5271600 -11.7990000 0 255 0
3.4515000 -1.8389500 -12.2246000 0 255 0
3.4392600 -1.8400800 -12.1908000 0 255 0
3.4073500 -1.8183200 -12.0798000 0 255 0
3.3090000 -1.4573700 -11.8049000 0 255 0
3.3073800 -1.4803600 -11.7997000 0 255 0
3.4788500 -1.9089400 -12.2930000 0 255 0
3.3967800 -1.7991700 -12.0319000 0 255 0
3.3429500 -1.1624000 -11.9887000 0 255 0
3.3126800 -1.4114100 -11.8167000 0 255 0
3.3114700 -1.4345700 -11.8128000 0 255 0
3.3661800 -1.7920300 -11.9174000 0 255 0
3.3334800 -1.2301300 -11.9240000 0 255 0
3.3125500 -1.3879000 -11.8164000 0 255 0
3.4125600 -1.7919400 -12.0703000 0 255 0
3.4783700 -1.8914900 -12.2756000 0 255 0
3.4713500 -1.8842300 -12.2490000 0 255 0
3.3526500 -1.7217800 -11.8660000 0 255 0
3.3620800 -1.7486700 -11.8953000 0 255 0
3.3728500 -1.7761900 -11.9288000 0 255 0
3.3868100 -1.8050400 -11.9723000 0 255 0
3.3489200 -1.1769500 -11.9835000 0 255 0
3.3379300 -1.2031100 -11.9412000 0 255 0
3.3323200 -1.2041600 -11.9156000 0 255 0
3.3203400 -1.2813900 -11.8596000 0 255 0
3.3224900 -1.3432200 -11.8478000 0 255 0
3.3175100 -1.3656000 -11.8321000 0 255 0
3.3441900 -1.6718500 -11.8399000 0 255 0
3.3484100 -1.6967800 -11.8529000 0 255 0
3.3237400 -1.2963600 -11.8519000 0 255 0
3.3267800 -1.3206100 -11.8614000 0 255 0
3.3370600 -1.5991300 -11.8179000 0 255 0
3.3397400 -1.6234400 -11.8262000 0 255 0
3.3431000 -1.6480000 -11.8366000 0 255 0
3.4952700 -1.9412100 -12.2958000 0 255 0
3.4063900 -1.8241200 -12.0094000 0 255 0
3.3339800 -1.2512500 -11.8843000 0 255 0
3.3289600 -1.2738600 -11.8684000 0 255 0
3.3317000 -1.5506400 -11.8014000 0 255 0
3.3343800 -1.5748700 -11.8097000 0 255 0
3.4681400 -1.8529300 -12.2110000 0 255 0
3.4615000 -1.8451800 -12.1851000 0 255 0
3.4505400 -1.8443000 -12.1532000 0 255 0
3.4439500 -1.8365900 -12.1274000 0 255 0
3.4337900 -1.8346000 -12.0967000 0 255 0
3.4259600 -1.8289700 -12.0693000 0 255 0
3.3379500 -1.1723000 -11.9097000 0 255 0
3.3291900 -1.5030800 -11.7938000 0 255 0
3.3290400 -1.5264500 -11.7932000 0 255 0
3.4221600 -1.8170000 -12.0475000 0 255 0
3.3329600 -1.4572600 -11.8058000 0 255 0
3.3296600 -1.4798000 -11.7954000 0 255 0
3.5031800 -1.9108400 -12.2901000 0 255 0
3.4130800 -1.7954900 -12.0018000 0 255 0
3.3980700 -1.7836100 -11.9483000 0 255 0
3.5116300 -1.9733600 -12.2986000 0 255 0
3.3377500 -1.4115600 -11.8209000 0 255 0
3.3362700 -1.4346600 -11.8162000 0 255 0
3.4107900 -1.7811600 -11.9821000 0 255 0
3.3913500 -1.7765100 -11.9226000 0 255 0
3.3364200 -1.3877500 -11.8169000 0 255 0
3.5026000 -1.8935600 -12.2725000 0 255 0
3.4897600 -1.8771400 -12.2212000 0 255 0
3.3765400 -1.7216300 -11.8662000 0 255 0
3.3838600 -1.7477600 -11.8888000 0 255 0
3.3924000 -1.7744300 -11.9151000 0 255 0
3.3935600 -1.7916900 -11.9147000 0 255 0
3.3662900 -1.2306700 -11.9418000 0 255 0
3.3455000 -1.2824700 -11.8573000 0 255 0
3.3510200 -1.3441100 -11.8626000 0 255 0
3.3434800 -1.3659300 -11.8390000 0 255 0
3.3640000 -1.6469000 -11.8277000 0 255 0
3.3675900 -1.6715600 -11.8387000 0 255 0
3.3709800 -1.6961900 -11.8491000 0 255 0
3.3880300 -1.1782800 -12.0246000 0 255 0
3.3773900 -1.2046100 -11.9841000 0 255 0
3.3478300 -1.2962200 -11.8528000 0 255 0
3.3510900 -1.3205200 -11.8629000 0 255 0
3.3596700 -1.5986200 -11.8145000 0 255 0
3.3623700 -1.6229100 -11.8228000 0 255 0
3.4870900 -1.8631600 -12.2007000 0 255 0
3.4811700 -1.8542700 -12.1758000 0 255 0
3.4738100 -1.8476800 -12.1490000 0 255 0
3.5211100 -1.9407400 -12.2950000 0 255 0
3.3550400 -1.2741300 -11.8754000 0 255 0
3.3542800 -1.5501400 -11.7980000 0 255 0
3.3569700 -1.5743600 -11.8063000 0 255 0
3.4681000 -1.8385400 -12.1245000 0 255 0
3.4575100 -1.8371400 -12.0933000 0 255 0
3.4497000 -1.8314200 -12.0660000 0 255 0
3.4437300 -1.8228600 -12.0412000 0 255 0
3.4369100 -1.8156700 -12.0153000 0 255 0
3.3673800 -1.2292000 -11.9140000 0 255 0
3.3644500 -1.2523500 -11.9048000 0 255 0
3.3500800 -1.5021300 -11.7852000 0 255 0
3.3520400 -1.5260800 -11.7912000 0 255 0
3.4078600 -1.7902900 -11.9098000 0 255 0
3.3737600 -1.1858700 -11.9351000 0 255 0
3.3558000 -1.4568500 -11.8031000 0 255 0
3.3518700 -1.4792200 -11.7909000 0 255 0
3.5276700 -1.9125200 -12.2874000 0 255 0
