2.7369000 -0.3563320 -10.9591000 255 0 0
2.7442900 -0.3772010 -10.9852000 255 0 0
2.8955600 -0.6275510 -11.4970000 255 0 0
2.6997800 0.7084790 -11.0622000 255 0 0
2.6734700 0.5322120 -10.9175000 255 0 0
2.6770200 0.3938610 -10.8951000 255 0 0
2.6760700 0.3719250 -10.8919000 255 0 0
2.6530500 0.2003030 -10.7575000 255 0 0
2.6779400 0.0867450 -10.8244000 255 0 0
2.6795300 0.0658490 -10.8302000 255 0 0
2.7098500 -0.2523590 -10.8634000 255 0 0
2.7147400 -0.2730490 -10.8808000 255 0 0
2.7243600 -0.2932090 -10.9147000 255 0 0
2.7308900 -0.3138990 -10.9378000 255 0 0
2.7832700 -0.4156930 -11.1032000 255 0 0
2.8485300 -0.5197490 -11.3295000 255 0 0
3.1210800 -0.8768680 -12.3003000 255 0 0
3.0001100 -0.7966340 -11.8489000 255 0 0
2.7657800 0.7904270 -11.3262000 255 0 0
2.7016900 0.6801480 -11.0477000 255 0 0
2.6654500 0.1468950 -10.7795000 255 0 0
2.6706800 0.1272330 -10.7982000 255 0 0
2.6731600 0.1066830 -10.8072000 255 0 0
2.7093900 -0.2096970 -10.8616000 255 0 0
2.7096200 -0.2310280 -10.8625000 255 0 0
3.1254500 -0.8439050 -12.3074000 255 0 0
2.7533300 0.7895360 -11.2630000 255 0 0
2.7711700 0.7504380 -11.3190000 255 0 0
2.7003800 0.6630650 -11.0265000 255 0 0
2.6786400 0.4917060 -10.9093000 255 0 0
2.6728900 0.2582610 -10.8231000 255 0 0
2.6685600 0.1903930 -10.7902000 255 0 0
2.6652700 0.1680780 -10.7787000 255 0 0
2.7129400 -0.1663150 -10.8739000 255 0 0
2.7122800 -0.1878330 -10.8717000 255 0 0
3.1229400 -0.8200910 -12.2878000 255 0 0
2.8492600 -0.4991840 -11.3131000 255 0 0
2.8322100 -0.4977590 -11.2548000 255 0 0
2.8122600 -0.4840120 -11.1754000 255 0 0
2.8037300 -0.4836260 -11.1465000 255 0 0
2.9297500 -0.6869540 -11.5768000 255 0 0
3.0129000 -0.8019850 -11.8673000 255 0 0
3.0071900 -0.8340410 -11.8497000 255 0 0
2.7494300 0.7812340 -11.2364000 255 0 0
2.6990000 0.6462780 -11.0052000 255 0 0
2.6827000 0.4550870 -10.8989000 255 0 0
2.6699500 0.2582470 -10.7999000 255 0 0
2.6712100 0.2338520 -10.7992000 255 0 0
2.6698800 0.2121090 -10.7947000 255 0 0
2.7094400 -0.1028000 -10.8613000 255 0 0
2.7113000 -0.1238210 -10.8679000 255 0 0
2.7124500 -0.1450000 -10.8721000 255 0 0
2.8436500 -0.4922070 -11.2879000 255 0 0
2.8299300 -0.4837220 -11.2342000 255 0 0
2.8211000 -0.4838240 -11.2048000 255 0 0
2.8750200 -0.5755060 -11.3810000 255 0 0
2.7855800 -0.5018620 -11.0597000 255 0 0
2.9237700 -0.6801830 -11.5509000 255 0 0
3.0017000 -0.7857860 -11.8159000 255 0 0
2.9586900 -0.7534200 -11.6589000 255 0 0
2.7906100 -0.5408710 -11.0644000 255 0 0
2.9645500 -0.7769290 -11.6793000 255 0 0
2.7432500 0.7808030 -11.2050000 255 0 0
2.7390500 0.7736480 -11.1778000 255 0 0
2.6976700 0.6292980 -10.9839000 255 0 0
2.6725600 0.2769490 -10.8036000 255 0 0
2.6710100 0.2550860 -10.7983000 255 0 0
2.7065200 -0.0606700 -10.8507000 255 0 0
2.7065100 -0.0820380 -10.8508000 255 0 0
3.0720300 -0.6562970 -12.1074000 255 0 0
3.0637000 -0.6531480 -12.0770000 255 0 0
2.8051400 -0.4617430 -11.1311000 255 0 0
2.8976900 -0.5850080 -11.4650000 255 0 0
2.8909900 -0.5799850 -11.4381000 255 0 0
2.8849700 -0.5735930 -11.4123000 255 0 0
2.7759500 -0.4502100 -11.0227000 255 0 0
2.9452100 -0.7066310 -11.6118000 255 0 0
2.9547000 -0.7300800 -11.6450000 255 0 0
3.1337500 -0.9618380 -12.2700000 255 0 0
3.1341600 -0.9904170 -12.2714000 255 0 0
2.8290600 0.8215600 -11.5303000 255 0 0
2.8252200 0.8125290 -11.5036000 255 0 0
2.7345900 0.7674030 -11.1502000 255 0 0
2.6922400 0.6268300 -10.9544000 255 0 0
2.6872300 0.4166720 -10.8893000 255 0 0
2.6782500 0.3003750 -10.8236000 255 0 0
2.7034300 -0.0186610 -10.8395000 255 0 0
2.7049700 -0.0396550 -10.8451000 255 0 0
2.7731100 -0.3980010 -11.0100000 255 0 0
2.7762700 -0.4194440 -11.0211000 255 0 0
2.7774800 -0.4238210 -11.0219000 255 0 0
2.8674400 -0.5535810 -11.3357000 255 0 0
2.7855200 -0.4628770 -11.0417000 255 0 0
2.9263900 -0.6557570 -11.5371000 255 0 0
2.7947200 -0.5042430 -11.0653000 255 0 0
3.1252200 -0.9631040 -12.2247000 255 0 0
2.8204500 0.8066490 -11.4749000 255 0 0
2.7328700 0.7517820 -11.1282000 255 0 0
2.6948500 0.5958970 -10.9411000 255 0 0
2.6883800 0.3904780 -10.8728000 255 0 0
2.6870900 0.3465410 -10.8545000 255 0 0
2.6857400 0.3245770 -10.8500000 255 0 0
2.7006000 0.0446550 -10.8291000 255 0 0
2.7039000 0.0241640 -10.8409000 255 0 0
2.7034900 0.0027040 -10.8396000 255 0 0
3.0867300 -0.6358900 -12.1438000 255 0 0
2.7550600 -0.3349230 -10.9467000 255 0 0
2.7588700 -0.3560790 -10.9601000 255 0 0
2.7650400 -0.3770720 -10.9817000 255 0 0
2.8050800 -0.4430430 -11.1136000 255 0 0
2.7899400 -0.4383890 -11.0587000 255 0 0
2.9218400 -0.6461050 -11.5132000 255 0 0
2.8147500 0.8039140 -11.4442000 255 0 0
2.7314400 0.7351790 -11.1068000 255 0 0
2.6891400 0.3656510 -10.8555000 255 0 0
2.6952600 0.0858330 -10.8099000 255 0 0
2.6991600 0.0656010 -10.8238000 255 0 0
2.7360800 -0.2514430 -10.8801000 255 0 0
2.7457800 -0.2715230 -10.9140000 255 0 0
2.7519600 -0.2922130 -10.9357000 255 0 0
2.7537300 -0.3135300 -10.9420000 255 0 0
2.8670900 -0.5353750 -11.3178000 255 0 0
3.1491000 -0.9051100 -12.3068000 255 0 0
2.9208700 -0.6290770 -11.4944000 255 0 0
2.8097500 0.7989260 -11.4151000 255 0 0
2.8057700 0.7905590 -11.3882000 255 0 0
2.7292500 0.7211880 -11.0838000 255 0 0
2.6977900 0.5637210 -10.9285000 255 0 0
2.6867600 0.1471380 -10.7795000 255 0 0
2.6897900 0.1268070 -10.7903000 255 0 0
2.6932100 0.1065410 -10.8026000 255 0 0
3.0981000 -0.6243110 -12.1644000 255 0 0
2.7358500 -0.2300710 -10.8792000 255 0 0
2.8073800 -0.4191740 -11.0993000 255 0 0
3.1509100 -0.8756120 -12.3039000 255 0 0
2.9548600 -0.7079930 -11.5913000 255 0 0
2.7947400 0.8058900 -11.3465000 255 0 0
2.7301700 0.6964290 -11.0673000 255 0 0
2.7007400 0.5314390 -10.9159000 255 0 0
2.6864200 0.1895110 -10.7779000 255 0 0
2.6861400 0.1681810 -10.7771000 255 0 0
2.7351800 -0.1659540 -10.8765000 255 0 0
3.1091000 -0.6223790 -12.1990000 255 0 0
2.7369700 -0.1870590 -10.8829000 255 0 0
2.7403500 -0.2079350 -10.8948000 255 0 0
3.1537400 -0.8447140 -12.3050000 255 0 0
2.7886600 -0.4184130 -11.0267000 255 0 0
2.8668500 -0.5169320 -11.3000000 255 0 0
2.8470900 -0.5022530 -11.2208000 255 0 0
2.8382300 -0.5023600 -11.1914000 255 0 0
2.8296400 -0.5019400 -11.1625000 255 0 0
2.7907900 0.7975490 -11.3197000 255 0 0
2.7230700 0.6995120 -11.0343000 255 0 0
2.6959000 0.2139050 -10.8111000 255 0 0
2.7305000 -0.1240340 -10.8599000 255 0 0
2.7329400 -0.1449580 -10.8685000 255 0 0
2.8667700 -0.4981360 -11.2824000 255 0 0
2.8569100 -0.5001990 -11.2516000 255 0 0
2.9238600 -0.6038560 -11.4810000 255 0 0
2.8259800 -0.4909940 -11.1402000 255 0 0
2.8887700 -0.5820810 -11.3452000 255 0 0
2.9783700 -0.7530260 -11.6461000 255 0 0
2.7801300 0.7903490 -11.2605000 255 0 0
2.7915400 0.7734420 -11.3028000 255 0 0
2.7192300 0.6913220 -11.0080000 255 0 0
2.7041500 0.4974260 -10.9041000 255 0 0
2.6941600 0.2772790 -10.8043000 255 0 0
2.6939700 0.2558920 -10.8039000 255 0 0
2.6957000 0.2351670 -10.8102000 255 0 0
2.6863300 0.1908620 -10.7536000 255 0 0
2.7253600 -0.0610110 -10.8415000 255 0 0
2.7272500 -0.0819570 -10.8483000 255 0 0
2.7307500 -0.1026020 -10.8606000 255 0 0
3.1520300 -0.8198060 -12.2886000 255 0 0
2.9229900 -0.5865980 -11.4623000 255 0 0
2.8981400 -0.5813970 -11.3755000 255 0 0
2.9569300 -0.6847430 -11.5767000 255 0 0
2.9666600 -0.7063540 -11.6056000 255 0 0
2.9715700 -0.7296070 -11.6226000 255 0 0
2.7729600 0.7930410 -11.2271000 255 0 0
2.7681400 0.7878890 -11.1987000 255 0 0
2.7176700 0.6752450 -10.9863000 255 0 0
2.7066700 0.4665530 -10.8905000 255 0 0
2.6982000 0.3000830 -10.8184000 255 0 0
2.7227100 -0.0189370 -10.8320000 255 0 0
2.7238100 -0.0400170 -10.8360000 255 0 0
2.7897800 -0.3982180 -10.9922000 255 0 0
2.7957200 -0.4194060 -11.0128000 255 0 0
2.8272900 -0.4693750 -11.1247000 255 0 0
2.8877900 -0.5652200 -11.3265000 255 0 0
2.9533500 -0.6729990 -11.5542000 255 0 0
3.1624600 -0.9615590 -12.2691000 255 0 0
2.8078900 -0.5200100 -11.0398000 255 0 0
3.0342500 -0.8139650 -11.8277000 255 0 0
3.1628700 -0.9901400 -12.2705000 255 0 0
2.7632600 0.7829710 -11.1702000 255 0 0
2.7085100 0.4380440 -10.8754000 255 0 0
2.7009100 0.3438480 -10.8274000 255 0 0
2.6995500 0.3219510 -10.8229000 255 0 0
2.7166400 0.0434840 -10.8103000 255 0 0
2.7196600 0.0229610 -10.8210000 255 0 0
2.7214500 0.0020880 -10.8274000 255 0 0
2.7731300 -0.3350960 -10.9342000 255 0 0
2.7772200 -0.3561970 -10.9485000 255 0 0
2.7863000 -0.3768940 -10.9800000 255 0 0
2.9221500 -0.5693100 -11.4436000 255 0 0
2.8261000 -0.4531420 -11.1057000 255 0 0
2.9127700 -0.5698130 -11.4132000 255 0 0
2.8079200 -0.4592380 -11.0334000 255 0 0
2.9521300 -0.6564620 -11.5350000 255 0 0
2.8116600 -0.4903060 -11.0389000 255 0 0
2.8047900 -0.5016640 -11.0100000 255 0 0
3.1540600 -0.9628290 -12.2254000 255 0 0
2.8527200 0.8120300 -11.5019000 255 0 0
2.7606900 0.7702290 -11.1465000 255 0 0
2.7246000 0.6293840 -10.9819000 255 0 0
2.7186100 0.6287900 -10.9512000 255 0 0
2.7084700 0.3682020 -10.8538000 255 0 0
2.7139100 0.0853130 -10.8004000 255 0 0
2.7164300 0.0647230 -10.8094000 255 0 0
3.1061300 -0.6424310 -12.1163000 255 0 0
3.0977300 -0.6392990 -12.0858000 255 0 0
2.7607500 -0.2721940 -10.8911000 255 0 0
2.7668200 -0.2928480 -10.9122000 255 0 0
2.7705100 -0.3138850 -10.9251000 255 0 0
2.8076700 -0.4367360 -11.0292000 255 0 0
2.8867300 -0.5485330 -11.3076000 255 0 0
2.9472700 -0.6473910 -11.5107000 255 0 0
2.9872200 -0.7334370 -11.6335000 255 0 0
2.8480000 0.8058880 -11.4733000 255 0 0
2.7589600 0.7546470 -11.1245000 255 0 0
2.7126500 0.4012360 -10.8649000 255 0 0
2.7104100 0.1268390 -10.7878000 255 0 0
2.7109200 0.1057330 -10.7898000 255 0 0
2.7574300 -0.2298330 -10.8794000 255 0 0
2.7576600 -0.2512070 -10.8803000 255 0 0
2.8195500 -0.4297160 -11.0623000 255 0 0
2.8855500 -0.5321230 -11.2886000 255 0 0
3.1779700 -0.9050990 -12.3067000 255 0 0
3.0525900 -0.7565320 -11.8673000 255 0 0
2.9445300 -0.6340040 -11.4894000 255 0 0
2.9824000 -0.7241130 -11.6092000 255 0 0
2.8430300 0.8006070 -11.4443000 255 0 0
2.7581200 0.7360050 -11.1043000 255 0 0
2.7224900 0.5935270 -10.9405000 255 0 0
2.7156600 0.3684140 -10.8520000 255 0 0
2.7077300 0.1897560 -10.7779000 255 0 0
2.7069300 0.1682660 -10.7753000 255 0 0
2.7080600 0.1473770 -10.7794000 255 0 0
2.7529100 -0.1663920 -10.8634000 255 0 0
2.7560200 -0.1872480 -10.8743000 255 0 0
2.7619600 -0.2076960 -10.8950000 255 0 0
3.1812500 -0.8737070 -12.3094000 255 0 0
2.8378200 0.7961860 -11.4148000 255 0 0
2.8326300 0.7917760 -11.3854000 255 0 0
2.7562000 0.7210820 -11.0819000 255 0 0
2.7250200 0.5629480 -10.9270000 255 0 0
2.7127100 0.2126410 -10.7951000 255 0 0
2.7484100 -0.1244930 -10.8475000 255 0 0
2.7506400 -0.1454300 -10.8554000 255 0 0
3.1298800 -0.6153640 -12.1696000 255 0 0
2.8319400 -0.4216780 -11.0961000 255 0 0
2.8789900 -0.5081850 -11.2448000 255 0 0
2.8704300 -0.5074530 -11.2159000 255 0 0
2.8619100 -0.5067210 -11.1870000 255 0 0
2.9451900 -0.6136290 -11.4728000 255 0 0
2.8545900 -0.5035090 -11.1599000 255 0 0
2.8484500 -0.4978260 -11.1343000 255 0 0
2.9832700 -0.7033300 -11.5929000 255 0 0
3.0002400 -0.7527370 -11.6412000 255 0 0
2.8110600 0.8203610 -11.3035000 255 0 0
2.8221000 0.8051300 -11.3449000 255 0 0
2.7572100 0.6960890 -11.0655000 255 0 0
2.7263800 0.5364280 -10.9111000 255 0 0
2.7151000 0.2560530 -10.8030000 255 0 0
2.7171500 0.2354350 -10.8104000 255 0 0
2.7446200 -0.0612540 -10.8339000 255 0 0
2.7448300 -0.0825370 -10.8348000 255 0 0
2.7466200 -0.1035020 -10.8412000 255 0 0
3.1845400 -0.8422450 -12.3120000 255 0 0
3.0567100 -0.7290930 -11.8555000 255 0 0
2.9439800 -0.5971140 -11.4537000 255 0 0
2.8457100 -0.4849210 -11.1133000 255 0 0
2.8089900 0.8057590 -11.2807000 255 0 0
2.7479000 0.7066350 -11.0281000 255 0 0
2.7154100 0.2988050 -10.8036000 255 0 0
2.7141100 0.2770200 -10.7993000 255 0 0
2.7422300 -0.0191480 -10.8254000 255 0 0
2.7426100 -0.0403780 -10.8268000 255 0 0
3.1861600 -0.8129200 -12.3083000 255 0 0
2.7999700 -0.3774230 -10.9523000 255 0 0
2.8083500 -0.3982670 -10.9811000 255 0 0
2.8126800 -0.4195560 -10.9961000 255 0 0
2.8186700 -0.4407990 -11.0168000 255 0 0
2.9235600 -0.5824580 -11.3732000 255 0 0
2.9141400 -0.5831390 -11.3429000 255 0 0
2.9849500 -0.6808830 -11.5778000 255 0 0
2.8045800 0.7990140 -11.2531000 255 0 0
2.7973800 0.8016860 -11.2198000 255 0 0
2.7379300 0.6981410 -10.9710000 255 0 0
2.7267700 0.5133190 -10.8932000 255 0 0
2.7193000 0.3429400 -10.8168000 255 0 0
2.7154600 0.3201470 -10.8036000 255 0 0
2.7341800 0.0427240 -10.7970000 255 0 0
2.7370200 0.0221800 -10.8070000 255 0 0
2.7394700 0.0014990 -10.8157000 255 0 0
3.1513000 -0.5931000 -12.2196000 255 0 0
2.7897900 -0.3354170 -10.9171000 255 0 0
2.7900300 -0.3568720 -10.9180000 255 0 0
2.8461200 -0.4652570 -11.0965000 255 0 0
2.9114500 -0.5698590 -11.3218000 255 0 0
2.9804500 -0.6709720 -11.5540000 255 0 0
2.7920000 0.7983160 -11.1903000 255 0 0
2.7305900 0.4779900 -10.8821000 255 0 0
2.7222300 0.3654440 -10.8267000 255 0 0
2.7325200 0.0847940 -10.7909000 255 0 0
2.7331900 0.0637220 -10.7934000 255 0 0
2.7810700 -0.2721320 -10.8869000 255 0 0
2.7825800 -0.2933580 -10.8922000 255 0 0
2.7895600 -0.3139620 -10.9162000 255 0 0
2.9475300 -0.5707400 -11.4410000 255 0 0
2.9382800 -0.5708790 -11.4108000 255 0 0
2.8236400 -0.4434700 -11.0037000 255 0 0
2.9084800 -0.5571770 -11.3004000 255 0 0
2.8221000 -0.4646670 -10.9921000 255 0 0
2.8230500 -0.4904580 -10.9886000 255 0 0
3.1832500 -0.9606690 -12.2354000 255 0 0
3.1829000 -0.9625530 -12.2261000 255 0 0
2.7929600 0.7736230 -11.1738000 255 0 0
2.7432000 0.6584010 -10.9631000 255 0 0
2.7324600 0.4495290 -10.8670000 255 0 0
2.7294800 0.1264150 -10.7800000 255 0 0
2.7296800 0.1052390 -10.7808000 255 0 0
2.7647100 -0.2317540 -10.8304000 255 0 0
2.7754900 -0.2515060 -10.8676000 255 0 0
2.8476700 -0.4431530 -11.0812000 255 0 0
2.8402000 -0.4404580 -11.0540000 255 0 0
2.8314200 -0.4406720 -11.0252000 255 0 0
2.9067600 -0.5418830 -11.2806000 255 0 0
2.9726900 -0.6487040 -11.5082000 255 0 0
3.0601800 -0.7958050 -11.8036000 255 0 0
2.8768200 0.8225880 -11.4930000 255 0 0
2.7885600 0.7670240 -11.1464000 255 0 0
2.7281100 0.1684690 -10.7748000 255 0 0
2.7213000 0.1718470 -10.7484000 255 0 0
2.7287200 0.1474250 -10.7771000 255 0 0
2.7703700 -0.1668690 -10.8495000 255 0 0
2.7718600 -0.1879660 -10.8548000 255 0 0
2.7787800 -0.2082210 -10.8787000 255 0 0
3.2072600 -0.9045510 -12.3082000 255 0 0
2.9681700 -0.6389260 -11.4845000 255 0 0
3.0150600 -0.7300530 -11.6343000 255 0 0
2.8727700 0.8141800 -11.4660000 255 0 0
2.7847700 0.7584150 -11.1202000 255 0 0
2.7512500 0.6088930 -10.9607000 255 0 0
2.7397700 0.4016290 -10.8626000 255 0 0
2.7325700 0.2123980 -10.7899000 255 0 0
2.7290300 0.1899980 -10.7778000 255 0 0
2.7621900 -0.1044450 -10.8210000 255 0 0
2.7658300 -0.1250370 -10.8336000 255 0 0
2.7685600 -0.1458510 -10.8432000 255 0 0
2.8999400 -0.5184620 -11.2366000 255 0 0
3.0834800 -0.7479730 -11.8720000 255 0 0
2.9665600 -0.6232350 -11.4648000 255 0 0
3.0117000 -0.7177470 -11.6120000 255 0 0
2.8677000 0.8091760 -11.4368000 255 0 0
2.8647000 0.7974040 -11.4120000 255 0 0
2.7828700 0.7433940 -11.0979000 255 0 0
2.7538200 0.5783380 -10.9472000 255 0 0
2.7389900 0.3825010 -10.8422000 255 0 0
2.7337400 0.2553580 -10.7935000 255 0 0
2.7339300 0.2341320 -10.7944000 255 0 0
2.7619600 -0.0619040 -10.8199000 255 0 0
2.7618000 -0.0832320 -10.8195000 255 0 0
3.2109900 -0.8726130 -12.3125000 255 0 0
2.8942500 -0.5116110 -11.2116000 255 0 0
2.8866600 -0.5088000 -11.1840000 255 0 0
2.8794900 -0.5051940 -11.1571000 255 0 0
2.8408100 -0.4622600 -11.0179000 255 0 0
3.0881900 -0.7726980 -11.8710000 255 0 0
3.0102900 -0.7015360 -11.5926000 255 0 0
2.8598800 0.7916740 -11.3834000 255 0 0
2.7816100 0.7262280 -11.0768000 255 0 0
2.7356900 0.2986550 -10.7998000 255 0 0
2.7363500 0.2775730 -10.8023000 255 0 0
2.7595800 -0.0198600 -10.8114000 255 0 0
2.7608300 -0.0408590 -10.8159000 255 0 0
3.2147300 -0.8405950 -12.3167000 255 0 0
2.8056200 -0.3572540 -10.8975000 255 0 0
2.8197800 -0.3773740 -10.9459000 255 0 0
2.8283300 -0.3981940 -10.9751000 255 0 0
2.8345300 -0.4193300 -10.9963000 255 0 0
2.8392400 -0.4406640 -11.0124000 255 0 0
2.9666800 -0.6039840 -11.4474000 255 0 0
2.8749800 -0.4959710 -11.1338000 255 0 0
2.8674700 -0.4931920 -11.1065000 255 0 0
2.8622300 -0.4856060 -11.0823000 255 0 0
3.0067800 -0.6895550 -11.5702000 255 0 0
2.8378600 0.8211700 -11.3009000 255 0 0
2.8305800 0.8238020 -11.2675000 255 0 0
2.8490300 0.8058240 -11.3424000 255 0 0
2.7807300 0.7077660 -11.0566000 255 0 0
2.7564000 0.5476900 -10.9336000 255 0 0
2.7415800 0.3512990 -10.8284000 255 0 0
2.7367200 0.3416820 -10.8029000 255 0 0
2.7357600 0.3199990 -10.7998000 255 0 0
2.7517200 0.0419820 -10.7839000 255 0 0
2.7550100 0.0215740 -10.7954000 255 0 0
2.7575700 0.0009430 -10.8044000 255 0 0
3.2182200 -0.8088530 -12.3200000 255 0 0
2.8049800 -0.3358910 -10.8953000 255 0 0
2.8592700 -0.4732160 -11.0611000 255 0 0
3.0036800 -0.6767970 -11.5484000 255 0 0
3.0399500 -0.7706340 -11.6659000 255 0 0
2.8261600 0.8170510 -11.2400000 255 0 0
2.7750000 0.7058710 -11.0265000 255 0 0
2.7556200 0.5287360 -10.9134000 255 0 0
2.7406000 0.3645120 -10.8161000 255 0 0
2.7511800 0.0843000 -10.7817000 255 0 0
2.7514600 0.0631430 -10.7828000 255 0 0
2.7927900 -0.2518720 -10.8533000 255 0 0
2.8058900 -0.2714660 -10.8981000 255 0 0
2.8029000 -0.2932870 -10.8879000 255 0 0
2.8087900 -0.3140150 -10.9081000 255 0 0
2.9614400 -0.5767900 -11.4053000 255 0 0
2.9513300 -0.5786920 -11.3740000 255 0 0
2.9452500 -0.5723170 -11.3483000 255 0 0
2.9385300 -0.5673340 -11.3218000 255 0 0
2.9993000 -0.6666210 -11.5248000 255 0 0
2.8503100 -0.5253110 -11.0037000 255 0 0
3.0345600 -0.7622940 -11.6409000 255 0 0
2.8241000 0.8024920 -11.2173000 255 0 0
2.7692800 0.7039810 -10.9966000 255 0 0
2.7580100 0.4986550 -10.8994000 255 0 0
2.7443400 0.3873540 -10.8288000 255 0 0
2.7492800 0.1262190 -10.7748000 255 0 0
2.7501300 0.1052350 -10.7779000 255 0 0
3.1818500 -0.5869770 -12.2226000 255 0 0
3.1760100 -0.5784540 -12.1958000 255 0 0
2.7923400 -0.2092500 -10.8515000 255 0 0
2.7893700 -0.2310400 -10.8415000 255 0 0
3.2203400 -0.7788260 -12.3181000 255 0 0
2.8572100 -0.4589070 -11.0411000 255 0 0
2.9338200 -0.5582310 -11.2980000 255 0 0
2.8239700 -0.4238430 -10.9188000 255 0 0
2.9967900 -0.6527180 -11.5039000 255 0 0
2.8440200 -0.4844020 -10.9761000 255 0 0
3.2118900 -0.9603910 -12.2345000 255 0 0
2.8190700 0.7978150 -11.1886000 255 0 0
2.7677200 0.6879250 -10.9750000 255 0 0
2.7510000 0.5015570 -10.8669000 255 0 0
2.7487300 0.1685030 -10.7725000 255 0 0
2.7487500 0.1472850 -10.7727000 255 0 0
3.2151700 -0.6068160 -12.3214000 255 0 0
2.7878900 -0.1673240 -10.8361000 255 0 0
2.7905100 -0.1882050 -10.8452000 255 0 0
2.9297800 -0.5477650 -11.2752000 255 0 0
2.9926900 -0.6420340 -11.4808000 255 0 0
3.0374000 -0.7376460 -11.6274000 255 0 0
2.8173000 0.7823670 -11.1665000 255 0 0
2.7703000 0.6576340 -10.9616000 255 0 0
2.7501200 0.4829370 -10.8464000 255 0 0
2.7501700 0.2114290 -10.7770000 255 0 0
2.7496900 0.1900360 -10.7756000 255 0 0
3.2123800 -0.5865980 -12.2996000 255 0 0
2.7823600 -0.1044560 -10.8168000 255 0 0
3.1744100 -0.5616410 -12.1752000 255 0 0
2.7838600 -0.1254500 -10.8221000 255 0 0
2.7840900 -0.1467000 -10.8230000 255 0 0
2.9276400 -0.5333870 -11.2549000 255 0 0
2.9897600 -0.6290270 -11.4593000 255 0 0
3.0358500 -0.7217250 -11.6077000 255 0 0
2.9005200 0.8342480 -11.4835000 255 0 0
2.8954100 0.8292230 -11.4543000 255 0 0
2.8141800 0.7713960 -11.1417000 255 0 0
2.7551600 0.2556280 -10.7937000 255 0 0
2.7500200 0.2326260 -10.7762000 255 0 0
2.7802900 -0.0623300 -10.8094000 255 0 0
2.7814400 -0.0833620 -10.8135000 255 0 0
2.9237100 -0.5227360 -11.2322000 255 0 0
2.8577000 -0.4623330 -11.0011000 255 0 0
3.0840000 -0.7702110 -11.7671000 255 0 0
3.0315700 -0.7112290 -11.5843000 255 0 0
2.8913600 0.8208290 -11.4274000 255 0 0
2.8103000 0.7630020 -11.1154000 255 0 0
2.7728900 0.6272530 -10.9481000 255 0 0
2.7576100 0.2990970 -10.8016000 255 0 0
2.7596900 0.2785050 -10.8090000 255 0 0
2.7792100 -0.0200270 -10.8054000 255 0 0
2.7794300 -0.0412490 -10.8063000 255 0 0
2.8511400 -0.3978820 -10.9787000 255 0 0
3.2394700 -0.8731440 -12.3108000 255 0 0
2.8563800 -0.4191030 -10.9965000 255 0 0
2.8607900 -0.4404610 -11.0115000 255 0 0
2.9139700 -0.5054960 -11.1845000 255 0 0
2.9891500 -0.6112900 -11.4409000 255 0 0
2.8837100 -0.4943410 -11.0752000 255 0 0
3.1039000 -0.7717200 -11.8279000 255 0 0
2.8891400 0.8065270 -11.4042000 255 0 0
2.8074500 0.7511980 -11.0912000 255 0 0
2.7810500 0.5775650 -10.9456000 255 0 0
2.7669800 0.4017270 -10.8605000 255 0 0
2.7608700 0.4014810 -10.8298000 255 0 0
2.7580700 0.3419190 -10.8027000 255 0 0
2.7561600 0.3198900 -10.7964000 255 0 0
2.7732600 0.0210440 -10.7848000 255 0 0
2.7735800 -0.0001060 -10.7861000 255 0 0
2.8247300 -0.3144460 -10.8890000 255 0 0
2.8262700 -0.3356970 -10.8943000 255 0 0
3.2428200 -0.8416790 -12.3135000 255 0 0
2.8333600 -0.3564140 -10.9184000 255 0 0
2.8434600 -0.3769670 -10.9527000 255 0 0
2.9102500 -0.4945260 -11.1621000 255 0 0
2.9024500 -0.4921830 -11.1345000 255 0 0
2.8953400 -0.4884440 -11.1078000 255 0 0
3.0303400 -0.6946870 -11.5651000 255 0 0
2.8871700 0.7914390 -11.3815000 255 0 0
2.8060200 0.7346420 -11.0699000 255 0 0
2.7678400 0.3869030 -10.8464000 255 0 0
2.7608300 0.3643060 -10.8119000 255 0 0
2.7708400 0.0840880 -10.7760000 255 0 0
2.7712600 0.0629820 -10.7776000 255 0 0
2.7722600 0.0420190 -10.7812000 255 0 0
2.8127000 -0.2518640 -10.8480000 255 0 0
2.8158300 -0.2727790 -10.8588000 255 0 0
2.8212500 -0.2934580 -10.8772000 255 0 0
2.9886300 -0.5933820 -11.4227000 255 0 0
3.0256900 -0.6850100 -11.5412000 255 0 0
3.0725600 -0.7770210 -11.6908000 255 0 0
2.8644200 0.8227620 -11.2979000 255 0 0
2.8768400 0.8036090 -11.3418000 255 0 0
2.8054200 0.7152810 -11.0501000 255 0 0
2.7864700 0.5372330 -10.9376000 255 0 0
2.7661500 0.4091540 -10.8297000 255 0 0
2.7644400 0.3870760 -10.8240000 255 0 0
2.7582800 0.1418010 -10.7415000 255 0 0
2.7690800 0.1260240 -10.7696000 255 0 0
2.7697800 0.1050110 -10.7722000 255 0 0
2.8093300 -0.2097210 -10.8364000 255 0 0
2.8102600 -0.2308930 -10.8397000 255 0 0
3.2461900 -0.8101440 -12.3161000 255 0 0
2.9837900 -0.5843050 -11.3987000 255 0 0
2.9779500 -0.5773380 -11.3733000 255 0 0
2.8807500 -0.4632470 -11.0367000 255 0 0
2.9637600 -0.5687080 -11.3193000 255 0 0
3.0232600 -0.6708930 -11.5203000 255 0 0
2.8495500 0.8287840 -11.2308000 255 0 0
2.8021000 0.7051070 -11.0250000 255 0 0
2.7821000 0.5307290 -10.9103000 255 0 0
2.7692400 0.1685050 -10.7697000 255 0 0
2.7687700 0.1471450 -10.7683000 255 0 0
3.2132100 -0.5793860 -12.2268000 255 0 0
3.2034000 -0.5785140 -12.1942000 255 0 0
3.1868600 -0.5709690 -12.1336000 255 0 0
3.1918400 -0.5811310 -12.1590000 255 0 0
2.8055900 -0.1677380 -10.8235000 255 0 0
2.8081800 -0.1885970 -10.8324000 255 0 0
3.2476300 -0.7810420 -12.3116000 255 0 0
3.1361500 -0.7419190 -11.9028000 255 0 0
2.8478400 -0.4235080 -10.9163000 255 0 0
3.0193300 -0.6598170 -11.4975000 255 0 0
3.2518600 -0.9609710 -12.2796000 255 0 0
3.2449700 -0.9889650 -12.2514000 255 0 0
2.8479000 0.8129020 -11.2089000 255 0 0
2.7987900 0.6949450 -10.9999000 255 0 0
2.7848900 0.4994220 -10.8970000 255 0 0
2.7702000 0.2112610 -10.7726000 255 0 0
2.7697200 0.1898770 -10.7711000 255 0 0
3.2230700 -0.5802620 -12.2596000 255 0 0
2.8029200 -0.1256610 -10.8142000 255 0 0
2.8040000 -0.1467380 -10.8180000 255 0 0
3.2341900 -0.7713810 -12.2517000 255 0 0
2.9536900 -0.5517850 -11.2709000 255 0 0
3.0165300 -0.6464960 -11.4761000 255 0 0
3.2401300 -0.9316110 -12.2323000 255 0 0
3.0615600 -0.7415880 -11.6230000 255 0 0
2.8451400 0.8006640 -11.1849000 255 0 0
2.7972200 0.6788750 -10.9782000 255 0 0
2.7747900 0.5129080 -10.8585000 255 0 0
2.7711700 0.2540640 -10.7754000 255 0 0
2.7706800 0.2326560 -10.7740000 255 0 0
2.7986700 -0.0627340 -10.7993000 255 0 0
2.7996800 -0.0837730 -10.8029000 255 0 0
2.8015000 -0.1046670 -10.8092000 255 0 0
3.2431500 -0.6112050 -12.3144000 255 0 0
2.9497400 -0.5411220 -11.2483000 255 0 0
2.8792300 -0.4621300 -11.0002000 255 0 0
3.0124300 -0.6358250 -11.4531000 255 0 0
3.0973800 -0.7738530 -11.7328000 255 0 0
3.0529500 -0.7206420 -11.5762000 255 0 0
2.8422000 0.7890790 -11.1605000 255 0 0
2.7974000 0.6568670 -10.9600000 255 0 0
2.7755400 0.4886450 -10.8412000 255 0 0
2.7764000 0.2771270 -10.7930000 255 0 0
2.7949800 -0.0210760 -10.7865000 255 0 0
2.7979800 -0.0416370 -10.7968000 255 0 0
3.2422500 -0.5878210 -12.2962000 255 0 0
2.8569300 -0.3774940 -10.9251000 255 0 0
2.8740400 -0.4191920 -10.9826000 255 0 0
3.2650500 -0.9044760 -12.3082000 255 0 0
2.8776400 -0.4405740 -10.9948000 255 0 0
2.9470300 -0.5279260 -11.2272000 255 0 0
3.0112100 -0.6193480 -11.4339000 255 0 0
3.0671800 -0.7400960 -11.6112000 255 0 0
2.9204400 0.8363460 -11.4477000 255 0 0
2.8390100 0.7783260 -11.1356000 255 0 0
2.7780600 0.3203290 -10.7981000 255 0 0
2.7771600 0.2986950 -10.7953000 255 0 0
2.7932300 0.0209500 -10.7802000 255 0 0
2.7941700 -0.0000420 -10.7836000 255 0 0
2.8435100 -0.3145400 -10.8798000 255 0 0
2.8518300 -0.3350430 -10.9078000 255 0 0
2.8533900 -0.3563480 -10.9131000 255 0 0
3.2680800 -0.8735130 -12.3096000 255 0 0
2.9443200 -0.5147410 -11.2062000 255 0 0
3.0520700 -0.7034190 -11.5575000 255 0 0
2.9134300 0.8373950 -11.4148000 255 0 0
2.8355000 0.7686500 -11.1101000 255 0 0
2.7972400 0.6360230 -10.9411000 255 0 0
2.7856300 0.4317200 -10.8420000 255 0 0
2.7819900 0.3644640 -10.8110000 255 0 0
2.7794000 0.3421460 -10.8024000 255 0 0
2.7910400 0.0628210 -10.7725000 255 0 0
2.7920400 0.0418690 -10.7760000 255 0 0
2.8312900 -0.2520360 -10.8384000 255 0 0
2.8354200 -0.2728020 -10.8524000 255 0 0
2.8379300 -0.2938290 -10.8609000 255 0 0
3.1743900 -0.7025280 -11.9890000 255 0 0
3.2711200 -0.8424880 -12.3110000 255 0 0
2.9416200 -0.5015660 -11.1853000 255 0 0
3.0108100 -0.6012090 -11.4159000 255 0 0
2.9101800 -0.4924890 -11.0747000 255 0 0
2.9010300 -0.4931090 -11.0455000 255 0 0
3.0497300 -0.6891090 -11.5367000 255 0 0
2.9098700 0.8274420 -11.3889000 255 0 0
2.9058200 0.8190750 -11.3621000 255 0 0
2.8320000 0.7589870 -11.0846000 255 0 0
2.7984700 0.6103780 -10.9249000 255 0 0
2.7868700 0.4091110 -10.8271000 255 0 0
2.7843100 0.3867200 -10.8187000 255 0 0
2.7888500 0.1258290 -10.7644000 255 0 0
2.7894100 0.1047880 -10.7665000 255 0 0
2.7904800 0.0838770 -10.7704000 255 0 0
2.8276800 -0.2099720 -10.8261000 255 0 0
2.8280400 -0.2312050 -10.8274000 255 0 0
3.1341100 -0.7142330 -11.8299000 255 0 0
2.8767600 -0.4147810 -10.9543000 255 0 0
2.9372400 -0.4919140 -11.1621000 255 0 0
3.0064000 -0.5912240 -11.3925000 255 0 0
2.9001100 -0.4763880 -11.0270000 255 0 0
2.9017800 0.8107200 -11.3353000 255 0 0
2.8300000 0.7443470 -11.0621000 255 0 0
2.7882300 0.4310650 -10.8314000 255 0 0
2.7892400 0.1683560 -10.7653000 255 0 0
2.7887600 0.1470060 -10.7639000 255 0 0
3.2303200 -0.5786900 -12.2026000 255 0 0
3.2649500 -0.6505160 -12.3125000 255 0 0
2.8252100 -0.1678150 -10.8175000 255 0 0
2.8270500 -0.1887860 -10.8238000 255 0 0
3.2731800 -0.8126650 -12.3088000 255 0 0
2.9342400 -0.4794030 -11.1408000 255 0 0
2.9246400 -0.4807890 -11.1108000 255 0 0
3.0012800 -0.5827450 -11.3681000 255 0 0
2.9951900 -0.5762730 -11.3425000 255 0 0
2.9889600 -0.5701350 -11.3167000 255 0 0
3.0502100 -0.6691680 -11.5199000 255 0 0
2.8848400 -0.4855070 -10.9567000 255 0 0
2.8948100 0.8119060 -11.3027000 255 0 0
2.8300000 0.7230430 -11.0436000 255 0 0
2.8067200 0.5606290 -10.9223000 255 0 0
2.7940600 0.4548880 -10.8510000 255 0 0
2.7901500 0.1898490 -10.7682000 255 0 0
3.2392000 -0.5822920 -12.2231000 255 0 0
3.2309900 -0.5782100 -12.1928000 255 0 0
2.8219400 -0.1258720 -10.8062000 255 0 0
3.2196600 -0.5802450 -12.1581000 255 0 0
2.8226800 -0.1469930 -10.8089000 255 0 0
3.2745300 -0.7837100 -12.3039000 255 0 0
3.1508000 -0.7427010 -11.8576000 255 0 0
3.1298700 -0.7282770 -11.7917000 255 0 0
2.8713800 -0.4225670 -10.9127000 255 0 0
2.8975900 -0.4630660 -11.0065000 255 0 0
3.0474200 -0.6557660 -11.4986000 255 0 0
3.2810300 -0.9893110 -12.2802000 255 0 0
3.1020500 -0.7744130 -11.6717000 255 0 0
2.8864800 0.8175900 -11.2673000 255 0 0
2.8810100 0.8140810 -11.2378000 255 0 0
2.8268600 0.7122170 -11.0188000 255 0 0
2.8065600 0.5396320 -10.9032000 255 0 0
2.7925600 0.2330870 -10.7758000 255 0 0
2.7912300 0.2114180 -10.7716000 255 0 0
2.8166000 -0.0632240 -10.7878000 255 0 0
2.8189400 -0.0839690 -10.7958000 255 0 0
3.2527500 -0.5761560 -12.2612000 255 0 0
2.8205200 -0.1048950 -10.8013000 255 0 0
3.2669100 -0.6224920 -12.2996000 255 0 0
3.2707400 -0.7614050 -12.2800000 255 0 0
3.1656100 -0.6917450 -11.9099000 255 0 0
2.8952700 -0.4406310 -10.9810000 255 0 0
2.8950800 -0.4497540 -10.9859000 255 0 0
2.9737800 -0.5448020 -11.2442000 255 0 0
3.0428400 -0.6459830 -11.4749000 255 0 0
2.9049300 -0.5067530 -11.0111000 255 0 0
3.0966800 -0.7430220 -11.6513000 255 0 0
3.0794200 -0.7388910 -11.5926000 255 0 0
3.0779800 -0.7441840 -11.5858000 255 0 0
2.8738800 0.8160040 -11.2050000 255 0 0
2.8248300 0.6977270 -10.9963000 255 0 0
2.8039900 0.5452150 -10.8837000 255 0 0
2.8035900 0.5282990 -10.8787000 255 0 0
2.7950200 0.5363040 -10.8435000 255 0 0
2.7968700 0.2770690 -10.7899000 255 0 0
2.7951400 0.2552040 -10.7843000 255 0 0
2.8153200 -0.0210660 -10.7832000 255 0 0
2.8162600 -0.0420770 -10.7865000 255 0 0
3.2240900 -0.5517290 -12.1463000 255 0 0
2.8769500 -0.3774170 -10.9197000 255 0 0
2.8872100 -0.3980510 -10.9540000 255 0 0
2.8899700 -0.4194050 -10.9632000 255 0 0
2.9696600 -0.5344890 -11.2214000 255 0 0
3.0382700 -0.6362140 -11.4512000 255 0 0
2.8704100 0.8060860 -11.1796000 255 0 0
2.8241600 0.6786470 -10.9764000 255 0 0
2.8006500 0.3210150 -10.8022000 255 0 0
2.7983200 0.2988720 -10.7946000 255 0 0
2.8131300 0.0208420 -10.7755000 255 0 0
2.8140800 -0.0001400 -10.7788000 255 0 0
2.8599400 -0.3148990 -10.8628000 255 0 0
2.8665300 -0.3355530 -10.8848000 255 0 0
2.8692400 -0.3566910 -10.8940000 255 0 0
3.1756600 -0.7255610 -11.9188000 255 0 0
3.1533600 -0.7013460 -11.8387000 255 0 0
2.9660700 -0.5231110 -11.1993000 255 0 0
3.0346600 -0.6245390 -11.4288000 255 0 0
3.1207500 -0.7569540 -11.7119000 255 0 0
2.8674100 0.7946340 -11.1551000 255 0 0
2.8215000 0.6662730 -10.9526000 255 0 0
2.8004600 0.4959630 -10.8352000 255 0 0
2.8030800 0.3645910 -10.8099000 255 0 0
2.8031300 0.3432580 -10.8103000 255 0 0
2.8108100 0.0626600 -10.7673000 255 0 0
2.8121800 0.0418130 -10.7721000 255 0 0
3.2723800 -0.5886600 -12.2932000 255 0 0
3.2339100 -0.6031890 -12.1519000 255 0 0
2.8559600 -0.2726960 -10.8493000 255 0 0
2.8591400 -0.2936370 -10.8600000 255 0 0
3.1698900 -0.6640070 -11.8980000 255 0 0
3.2967700 -0.8737640 -12.3088000 255 0 0
3.0315300 -0.6119130 -11.4072000 255 0 0
3.0856500 -0.7076460 -11.5836000 255 0 0
3.0965500 -0.7234920 -11.6179000 255 0 0
2.9364100 0.8507670 -11.4043000 255 0 0
2.8641900 0.7839650 -11.1302000 255 0 0
2.8194400 0.6519020 -10.9300000 255 0 0
2.8044400 0.3864710 -10.8142000 255 0 0
2.8090200 0.1045650 -10.7609000 255 0 0
2.8101000 0.0836660 -10.7647000 255 0 0
2.8467000 -0.2101120 -10.8181000 255 0 0
2.8493700 -0.2309890 -10.8271000 255 0 0
2.8527800 -0.2518010 -10.8386000 255 0 0
2.9645000 -0.5075850 -11.1798000 255 0 0
3.0284100 -0.5993020 -11.3855000 255 0 0
2.9339100 -0.4964080 -11.0706000 255 0 0
2.9261700 -0.4939510 -11.0433000 255 0 0
3.0839300 -0.6920500 -11.5637000 255 0 0
3.0766200 -0.6875150 -11.5362000 255 0 0
2.9311200 0.8463050 -11.3750000 255 0 0
2.8606700 0.7742910 -11.1047000 255 0 0
2.8085600 0.4308640 -10.8275000 255 0 0
2.8063200 0.4085800 -10.8203000 255 0 0
2.8087500 0.1468670 -10.7595000 255 0 0
2.8086000 0.1256350 -10.7593000 255 0 0
3.2529800 -0.5863570 -12.1945000 255 0 0
3.2574200 -0.5991470 -12.2167000 255 0 0
2.8434100 -0.1681280 -10.8069000 255 0 0
2.8459500 -0.1889630 -10.8155000 255 0 0
3.2989600 -0.8438440 -12.3070000 255 0 0
3.1599100 -0.7157430 -11.8272000 255 0 0
2.9601900 -0.4977410 -11.1568000 255 0 0
2.9528500 -0.4942630 -11.1298000 255 0 0
2.9456700 -0.4905170 -11.1031000 255 0 0
3.0253000 -0.5867010 -11.3638000 255 0 0
2.9247100 0.8454650 -11.3435000 255 0 0
2.8567600 0.7659100 -11.0785000 255 0 0
2.8237400 0.6159790 -10.9197000 255 0 0
2.8097200 0.4527490 -10.8312000 255 0 0
2.8107800 0.1898860 -10.7659000 255 0 0
2.8095000 0.1682870 -10.7618000 255 0 0
2.8409400 -0.1260830 -10.7983000 255 0 0
2.8415600 -0.1472060 -10.8006000 255 0 0
3.3008100 -0.8143210 -12.3039000 255 0 0
3.1455800 -0.7271970 -11.7603000 255 0 0
2.9101200 -0.4618430 -10.9651000 255 0 0
2.9271800 0.8162480 -11.3298000 255 0 0
2.8539300 0.7540310 -11.0544000 255 0 0
2.8129000 0.2330140 -10.7725000 255 0 0
2.8115200 0.2113390 -10.7681000 255 0 0
2.8366400 -0.0632610 -10.7836000 255 0 0
2.8380700 -0.0841820 -10.7885000 255 0 0
2.8405800 -0.1049130 -10.7970000 255 0 0
3.2477600 -0.5788510 -12.1576000 255 0 0
3.2921300 -0.6560640 -12.3041000 255 0 0
3.3031700 -0.7841220 -12.3026000 255 0 0
3.0221900 -0.5741140 -11.3422000 255 0 0
2.9111500 -0.4407990 -10.9616000 255 0 0
2.9295000 -0.4683140 -11.0303000 255 0 0
2.9240100 -0.4612040 -11.0059000 255 0 0
3.0775800 -0.6666390 -11.5200000 255 0 0
3.3147700 -0.9894510 -12.2991000 255 0 0
2.9250900 0.8016180 -11.3070000 255 0 0
2.8539400 0.7327550 -11.0358000 255 0 0
2.8304200 0.5718960 -10.9139000 255 0 0
2.8222500 0.5439950 -10.8723000 255 0 0
2.8160500 0.2765740 -10.7826000 255 0 0
2.8136700 0.2545120 -10.7749000 255 0 0
2.8347700 -0.0212540 -10.7769000 255 0 0
2.8352200 -0.0423580 -10.7786000 255 0 0
3.2781100 -0.5803880 -12.2564000 255 0 0
3.1833900 -0.6896770 -11.8778000 255 0 0
2.9003100 -0.3770390 -10.9255000 255 0 0
2.9064400 -0.3980320 -10.9458000 255 0 0
3.1601800 -0.7184610 -11.7952000 255 0 0
2.9075300 -0.4194930 -10.9495000 255 0 0
3.0190900 -0.5615380 -11.3206000 255 0 0
3.0128300 -0.5554190 -11.2949000 255 0 0
3.0058100 -0.5509210 -11.2682000 255 0 0
2.9192700 -0.4525590 -10.9826000 255 0 0
2.9988000 -0.5464350 -11.2415000 255 0 0
3.0694000 -0.6449820 -11.4739000 255 0 0
2.9341200 -0.5153970 -11.0242000 255 0 0
2.9228800 0.7873840 -11.2840000 255 0 0
2.8508000 0.7219340 -11.0111000 255 0 0
2.8245200 0.5665570 -10.8797000 255 0 0
2.8281500 0.5581600 -10.8908000 255 0 0
2.8198500 0.3204840 -10.7948000 255 0 0
2.8174600 0.2983420 -10.7871000 255 0 0
2.8333800 0.0208250 -10.7719000 255 0 0
2.8343900 -0.0001360 -10.7755000 255 0 0
3.2509100 -0.5528780 -12.1439000 255 0 0
3.2974600 -0.6225810 -12.2974000 255 0 0
3.3048000 -0.7548060 -12.2987000 255 0 0
2.8809200 -0.3147330 -10.8611000 255 0 0
2.8881300 -0.3353240 -10.8850000 255 0 0
2.8958800 -0.3559720 -10.9107000 255 0 0
2.9176900 -0.4360870 -10.9640000 255 0 0
2.9918200 -0.5419600 -11.2150000 255 0 0
3.0656900 -0.6334340 -11.4514000 255 0 0
2.9019600 0.8122970 -11.2053000 255 0 0
2.9121400 0.8006800 -11.2440000 255 0 0
2.8490700 0.7064080 -10.9892000 255 0 0
2.8216000 0.3424340 -10.8004000 255 0 0
2.8311100 0.0626440 -10.7640000 255 0 0
2.8320600 0.0416950 -10.7673000 255 0 0
3.3056500 -0.7264850 -12.2919000 255 0 0
2.8710700 -0.2520080 -10.8282000 255 0 0
2.8774800 -0.2724630 -10.8495000 255 0 0
2.8839200 -0.2930120 -10.8709000 255 0 0
3.1994400 -0.6781250 -11.9182000 255 0 0
3.1775100 -0.7043170 -11.8339000 255 0 0
2.9199200 -0.4325600 -10.9661000 255 0 0
2.9876700 -0.5317210 -11.1922000 255 0 0
3.0614500 -0.6229800 -11.4283000 255 0 0
2.8988000 0.8013090 -11.1805000 255 0 0
2.8489300 0.6856280 -10.9703000 255 0 0
2.8257300 0.5234560 -10.8486000 255 0 0
2.8243800 0.3861560 -10.8092000 255 0 0
2.8219700 0.3639000 -10.8014000 255 0 0
2.8292900 0.1045300 -10.7575000 255 0 0
2.8296900 0.0834560 -10.7591000 255 0 0
2.8669200 -0.2100630 -10.8143000 255 0 0
2.8692600 -0.2309830 -10.8221000 255 0 0
3.3255400 -0.8739260 -12.3082000 255 0 0
3.0554800 -0.6160390 -11.4028000 255 0 0
3.0495200 -0.6091140 -11.3774000 255 0 0
3.1208300 -0.7090120 -11.6118000 255 0 0
3.1441400 -0.7400500 -11.6910000 255 0 0
3.1096300 -0.7069430 -11.5684000 255 0 0
3.1030300 -0.7058890 -11.5526000 255 0 0
2.8948500 0.7928900 -11.1541000 255 0 0
2.8465600 0.6722760 -10.9471000 255 0 0
2.8282000 0.4303950 -10.8214000 255 0 0
2.8266300 0.4083880 -10.8164000 255 0 0
2.8290900 0.1468380 -10.7564000 255 0 0
2.8289600 0.1256180 -10.7562000 255 0 0
3.3029800 -0.5887290 -12.2910000 255 0 0
2.8617300 -0.1684130 -10.7968000 255 0 0
2.8645900 -0.1891770 -10.8064000 255 0 0
3.1986200 -0.7125710 -11.8884000 255 0 0
2.9884700 -0.5113040 -11.1758000 255 0 0
3.0459700 -0.5973950 -11.3552000 255 0 0
3.1426300 -0.7223300 -11.6734000 255 0 0
3.1151700 -0.7010610 -11.5865000 255 0 0
3.1187900 -0.7088020 -11.5958000 255 0 0
2.8906500 0.7853360 -11.1273000 255 0 0
2.8418000 0.6669390 -10.9194000 255 0 0
2.8300800 0.4870880 -10.8381000 255 0 0
2.8297400 0.4738250 -10.8259000 255 0 0
2.8294300 0.4522880 -10.8252000 255 0 0
2.8322100 0.1901720 -10.7663000 255 0 0
2.8306400 0.1684900 -10.7613000 255 0 0
3.3011600 -0.5668560 -12.2711000 255 0 0
2.8594900 -0.1263680 -10.7891000 255 0 0
3.2764700 -0.5962410 -12.1762000 255 0 0
2.8593900 -0.1476000 -10.7889000 255 0 0
3.3169900 -0.6900690 -12.3081000 255 0 0
3.3056200 -0.7817290 -12.2456000 255 0 0
3.3281100 -0.8435610 -12.3077000 255 0 0
2.9854400 -0.4987830 -11.1544000 255 0 0
2.9787300 -0.4939220 -11.1284000 255 0 0
2.9705800 -0.4920920 -11.1005000 255 0 0
2.9562300 -0.4845680 -11.0474000 255 0 0
2.8864600 0.7777940 -11.1006000 255 0 0
2.8305000 0.4955610 -10.8282000 255 0 0
2.8329900 0.2328660 -10.7684000 255 0 0
2.8321100 0.2113600 -10.7657000 255 0 0
2.8555900 -0.0635230 -10.7757000 255 0 0
2.8578900 -0.0842520 -10.7835000 255 0 0
2.8592800 -0.1051930 -10.7882000 255 0 0
3.2820300 -0.5811090 -12.1952000 255 0 0
3.2674700 -0.5669700 -12.1429000 255 0 0
3.3306800 -0.8131470 -12.3071000 255 0 0
3.0469400 -0.5765510 -11.3390000 255 0 0
2.9295300 -0.4407990 -10.9506000 255 0 0
3.1411200 -0.7046080 -11.6558000 255 0 0
3.1010700 -0.6718280 -11.5149000 255 0 0
2.9518100 0.8453630 -11.3415000 255 0 0
2.8822800 0.7702650 -11.0739000 255 0 0
2.8770200 0.7662970 -11.0451000 255 0 0
2.8461400 0.6311030 -10.9090000 255 0 0
2.8365400 0.5410600 -10.8478000 255 0 0
2.8348700 0.2759690 -10.7742000 255 0 0
2.8338800 0.2543900 -10.7711000 255 0 0
2.8541900 -0.0214420 -10.7707000 255 0 0
2.8541600 -0.0426380 -10.7708000 255 0 0
3.3214900 -0.6580560 -12.2998000 255 0 0
2.9186300 -0.3771130 -10.9146000 255 0 0
2.9222500 -0.3982890 -10.9266000 255 0 0
2.9238500 -0.4196670 -10.9319000 255 0 0
3.1675200 -0.7133890 -11.7372000 255 0 0
3.1396100 -0.6868840 -11.6383000 255 0 0
2.9488600 -0.4626690 -11.0033000 255 0 0
2.9353200 -0.4629260 -10.9635000 255 0 0
3.1216900 -0.6988860 -11.5690000 255 0 0
3.3290700 -0.9566410 -12.2598000 255 0 0
3.3455100 -0.9831190 -12.3137000 255 0 0
3.3435800 -0.9891760 -12.2982000 255 0 0
2.9451400 -0.5128900 -10.9797000 255 0 0
2.9536800 0.8181810 -11.3266000 255 0 0
2.8505000 0.5951200 -10.8987000 255 0 0
2.8380800 0.2983350 -10.7846000 255 0 0
2.8540500 0.0209100 -10.7698000 255 0 0
2.8541400 -0.0002620 -10.7703000 255 0 0
3.2785500 -0.5723610 -12.1609000 255 0 0
3.3329000 -0.7831360 -12.3053000 255 0 0
2.9027000 -0.3358320 -10.8622000 255 0 0
2.9099700 -0.3564790 -10.8861000 255 0 0
3.3392900 -0.8836800 -12.2933000 255 0 0
3.1895200 -0.7107550 -11.7974000 255 0 0
3.3463500 -0.9090110 -12.3164000 255 0 0
3.0441700 -0.5632850 -11.3178000 255 0 0
3.0378200 -0.5572770 -11.2920000 255 0 0
3.0299700 -0.5543830 -11.2643000 255 0 0
3.3455500 -0.9336690 -12.3138000 255 0 0
2.9431600 -0.4560090 -10.9788000 255 0 0
3.0221500 -0.5514980 -11.2366000 255 0 0
3.0143500 -0.5486190 -11.2091000 255 0 0
3.0999800 -0.6550260 -11.4959000 255 0 0
2.9599200 -0.5178880 -11.0266000 255 0 0
2.9518100 0.8028230 -11.3043000 255 0 0
2.8620300 0.7732440 -10.9790000 255 0 0
2.8792700 0.7377430 -11.0309000 255 0 0
2.8458300 0.3437140 -10.8098000 255 0 0
2.8403200 0.3204140 -10.7918000 255 0 0
2.8509600 0.0625160 -10.7592000 255 0 0
2.8524500 0.0417100 -10.7644000 255 0 0
3.2746400 -0.5308000 -12.1366000 255 0 0
3.2777300 -0.5540260 -12.1415000 255 0 0
3.3355900 -0.7525020 -12.3051000 255 0 0
2.8973400 -0.2724430 -10.8443000 255 0 0
2.8992400 -0.2935350 -10.8506000 255 0 0
2.9064800 -0.3140500 -10.8745000 255 0 0
2.9399600 -0.4441100 -10.9574000 255 0 0
3.0987500 -0.6385020 -11.4767000 255 0 0
3.0101000 -0.5385420 -11.1862000 255 0 0
2.9500100 0.7872790 -11.2820000 255 0 0
2.8675800 0.7338750 -10.9712000 255 0 0
2.8501300 0.5750150 -10.8793000 255 0 0
2.8468200 0.3867960 -10.8125000 255 0 0
2.8458100 0.3650580 -10.8094000 255 0 0
2.8495800 0.1045010 -10.7542000 255 0 0
2.8500700 0.0834600 -10.7561000 255 0 0
3.3087900 -0.5493060 -12.2484000 255 0 0
3.3260000 -0.6259680 -12.2916000 255 0 0
2.8862400 -0.2101490 -10.8075000 255 0 0
2.8890600 -0.2309870 -10.8169000 255 0 0
2.8923400 -0.2518020 -10.8277000 255 0 0
3.2256700 -0.6792420 -11.9158000 255 0 0
3.2037800 -0.7030020 -11.8320000 255 0 0
3.0944500 -0.6280840 -11.4534000 255 0 0
3.0872500 -0.6234620 -11.4263000 255 0 0
2.9418500 0.7920710 -11.2473000 255 0 0
2.9341300 0.7955360 -11.2135000 255 0 0
2.8533200 0.5428490 -10.8666000 255 0 0
2.8488200 0.4089330 -10.8189000 255 0 0
2.8497400 0.1469020 -10.7543000 255 0 0
2.8482100 0.1252940 -10.7495000 255 0 0
2.8780400 -0.1690280 -10.7803000 255 0 0
2.8844300 -0.1891920 -10.8014000 255 0 0
3.2149100 -0.7016500 -11.8625000 255 0 0
2.9401000 -0.4252040 -10.9403000 255 0 0
3.0115600 -0.5168030 -11.1707000 255 0 0
3.0800700 -0.6188500 -11.3993000 255 0 0
3.0729200 -0.6142520 -11.3723000 255 0 0
2.9270500 0.7970310 -11.1811000 255 0 0
2.8745800 0.6895910 -10.9660000 255 0 0
2.8517300 0.4528810 -10.8279000 255 0 0
2.8501600 0.4308500 -10.8230000 255 0 0
2.8531300 0.1903020 -10.7650000 255 0 0
2.8517100 0.1686660 -10.7606000 255 0 0
2.8776000 -0.1267280 -10.7786000 255 0 0
2.8778200 -0.1478780 -10.7794000 255 0 0
3.3546600 -0.8736450 -12.3089000 255 0 0
3.0689900 -0.6032630 -11.3497000 255 0 0
3.1440100 -0.7087300 -11.5930000 255 0 0
2.9218200 0.7926620 -11.1523000 255 0 0
2.8731800 0.6730130 -10.9447000 255 0 0
2.8565200 0.5105770 -10.8538000 255 0 0
2.8526600 0.4961080 -10.8304000 255 0 0
2.8526400 0.4746730 -10.8307000 255 0 0
2.8539100 0.2117620 -10.7674000 255 0 0
2.8748500 -0.0637120 -10.7690000 255 0 0
2.8764700 -0.0845670 -10.7745000 255 0 0
3.3347800 -0.5868720 -12.2911000 255 0 0
2.8773800 -0.1055770 -10.7777000 255 0 0
3.3078700 -0.5823710 -12.1915000 255 0 0
3.3032700 -0.5973910 -12.1737000 255 0 0
3.3447400 -0.6945830 -12.3009000 255 0 0
3.3564100 -0.8443210 -12.3054000 255 0 0
3.0105600 -0.5001000 -11.1519000 255 0 0
3.0044500 -0.4939260 -11.1267000 255 0 0
2.9967100 -0.4911430 -11.0994000 255 0 0
3.1400600 -0.6846080 -11.5656000 255 0 0
3.1415300 -0.6930880 -11.5742000 255 0 0
2.9176200 0.7850490 -11.1255000 255 0 0
2.8686000 0.6669600 -10.9173000 255 0 0
2.8597800 0.5420680 -10.8535000 255 0 0
2.8583100 0.5199490 -10.8489000 255 0 0
2.8560400 0.2549150 -10.7739000 255 0 0
2.8556700 0.2335510 -10.7729000 255 0 0
2.8735800 -0.0216300 -10.7645000 255 0 0
2.8730600 -0.0429170 -10.7629000 255 0 0
3.3585300 -0.8145130 -12.3031000 255 0 0
2.9348700 -0.3773670 -10.8971000 255 0 0
2.9396900 -0.3984070 -10.9129000 255 0 0
2.9435100 -0.4195920 -10.9255000 255 0 0
2.9909500 -0.4843510 -11.0746000 255 0 0
3.0704700 -0.5814240 -11.3342000 255 0 0
3.1353800 -0.6747680 -11.5417000 255 0 0
3.3694200 -0.9580610 -12.3103000 255 0 0
3.3697400 -0.9828150 -12.3114000 255 0 0
2.9845800 0.8487030 -11.3694000 255 0 0
2.9128200 0.7794000 -11.0976000 255 0 0
2.8589500 0.5631950 -10.8504000 255 0 0
2.8559700 0.2973940 -10.7731000 255 0 0
2.8550700 0.2758400 -10.7704000 255 0 0
2.8744300 -0.0002570 -10.7670000 255 0 0
3.3322200 -0.5662010 -12.2698000 255 0 0
3.3018100 -0.5803000 -12.1534000 255 0 0
2.9210000 -0.3146100 -10.8517000 255 0 0
2.9283000 -0.3351810 -10.8756000 255 0 0
2.9315800 -0.3562510 -10.8863000 255 0 0
3.2185800 -0.7246690 -11.8149000 255 0 0
3.3695600 -0.9086260 -12.3108000 255 0 0
2.9806300 -0.4684010 -11.0268000 255 0 0
3.3694200 -0.9333390 -12.3103000 255 0 0
2.9616400 -0.4668310 -10.9648000 255 0 0
3.3724000 -0.9889010 -12.2973000 255 0 0
2.9693400 -0.5111730 -10.9752000 255 0 0
2.9789800 0.8450310 -11.3397000 255 0 0
2.9094800 0.7690770 -11.0726000 255 0 0
2.9035700 0.7670960 -11.0426000 255 0 0
2.8713300 0.6366770 -10.9039000 255 0 0
2.8610500 0.3417360 -10.7893000 255 0 0
2.8559800 0.3186530 -10.7729000 255 0 0
2.8714900 0.0625670 -10.7568000 255 0 0
2.8731000 0.0417920 -10.7623000 255 0 0
2.8740100 0.0208290 -10.7654000 255 0 0
3.2999800 -0.5639200 -12.1325000 255 0 0
3.3520700 -0.6580880 -12.2978000 255 0 0
2.9140800 -0.2728200 -10.8289000 255 0 0
2.9146300 -0.2940390 -10.8309000 255 0 0
3.2356800 -0.6919010 -11.8731000 255 0 0
3.1988800 -0.7014440 -11.7421000 255 0 0
3.1899800 -0.6985240 -11.7148000 255 0 0
3.0694500 -0.5646170 -11.3153000 255 0 0
3.0627000 -0.5593650 -11.2890000 255 0 0
3.3749800 -0.9317760 -12.3077000 255 0 0
2.9736800 -0.4642210 -11.0007000 255 0 0
3.1336400 -0.6591740 -11.5219000 255 0 0
3.0396200 -0.5496640 -11.2068000 255 0 0
3.3736900 -0.9603530 -12.3025000 255 0 0
2.9810600 -0.5121540 -11.0147000 255 0 0
2.9770100 0.8300240 -11.3172000 255 0 0
2.9000900 0.7573200 -11.0174000 255 0 0
2.8726400 0.6110780 -10.8876000 255 0 0
2.8644700 0.3642960 -10.8003000 255 0 0
2.8701500 0.1045550 -10.7519000 255 0 0
2.8696100 0.0832470 -10.7504000 255 0 0
3.3332600 -0.5535770 -12.2425000 255 0 0
3.2997000 -0.5335970 -12.1318000 255 0 0
2.9062500 -0.2101270 -10.8031000 255 0 0
2.9083800 -0.2310560 -10.8101000 255 0 0
3.3648000 -0.7522130 -12.3058000 255 0 0
2.9119400 -0.2518210 -10.8218000 255 0 0
3.2131200 -0.6936920 -11.7763000 255 0 0
3.1884600 -0.6807150 -11.6971000 255 0 0
3.3740000 -0.9030470 -12.3041000 255 0 0
2.9722800 -0.4484920 -10.9816000 255 0 0
3.1322000 -0.6430340 -11.5024000 255 0 0
3.0353500 -0.5395850 -11.1838000 255 0 0
2.9748000 0.8158040 -11.2942000 255 0 0
2.8937400 0.7569180 -10.9866000 255 0 0
2.8701800 0.4091560 -10.8185000 255 0 0
2.8686000 0.3871800 -10.8136000 255 0 0
2.8712100 0.1472030 -10.7550000 255 0 0
2.8711700 0.1260080 -10.7550000 255 0 0
3.2973400 -0.5491010 -12.1105000 255 0 0
3.3550800 -0.6284710 -12.2867000 255 0 0
2.8944600 -0.1696140 -10.7644000 255 0 0
2.8946900 -0.1907270 -10.7653000 255 0 0
3.2519100 -0.6803590 -11.9134000 255 0 0
3.2401800 -0.7024800 -11.8591000 255 0 0
3.2250500 -0.6907200 -11.8077000 255 0 0
2.9671400 -0.4406250 -10.9578000 255 0 0
2.9605200 -0.4358740 -10.9322000 255 0 0
2.9719600 0.8035520 -11.2700000 255 0 0
2.9641700 0.8069950 -11.2361000 255 0 0
2.8945700 0.7331120 -10.9696000 255 0 0
2.8768100 0.5758410 -10.8768000 255 0 0
2.8738300 0.4533870 -10.8300000 255 0 0
2.8723600 0.4313930 -10.8254000 255 0 0
2.8714300 0.1684500 -10.7554000 255 0 0
2.8956700 -0.1270870 -10.7680000 255 0 0
2.8962200 -0.1481560 -10.7700000 255 0 0
3.3671200 -0.7220350 -12.3042000 255 0 0
3.1879900 -0.6607680 -11.6808000 255 0 0
3.1309300 -0.6265540 -11.4831000 255 0 0
2.9578600 -0.4228710 -10.9116000 255 0 0
3.0365300 -0.5184390 -11.1679000 255 0 0
3.1160000 -0.6181070 -11.4282000 255 0 0
3.1087800 -0.6134980 -11.4012000 255 0 0
2.9560100 0.8117240 -11.2016000 255 0 0
2.8772100 0.5779490 -10.8668000 255 0 0
2.8777800 0.4764210 -10.8427000 255 0 0
2.8743100 0.2117250 -10.7643000 255 0 0
2.8735200 0.1902710 -10.7620000 255 0 0
2.8950100 -0.0848810 -10.7655000 255 0 0
2.8954600 -0.1059610 -10.7671000 255 0 0
3.2810700 -0.5928120 -12.0113000 255 0 0
3.3671100 -0.6947870 -12.2943000 255 0 0
3.1880600 -0.6397360 -11.6652000 255 0 0
3.3815700 -0.8760700 -12.3017000 255 0 0
3.1015800 -0.6089040 -11.3742000 255 0 0
2.9523800 0.8021330 -11.1760000 255 0 0
2.8973300 0.7029860 -10.9563000 255 0 0
2.8849100 0.5223520 -10.8655000 255 0 0
2.8800900 0.4988360 -10.8500000 255 0 0
2.8788500 0.2556430 -10.7787000 255 0 0
2.8790400 0.2344460 -10.7796000 255 0 0
2.8927700 -0.0430160 -10.7578000 255 0 0
2.8946200 -0.0637920 -10.7640000 255 0 0
3.3406100 -0.5776140 -12.2106000 255 0 0
3.3646300 -0.6707190 -12.2755000 255 0 0
3.3837400 -0.8462700 -12.2996000 255 0 0
2.9559900 -0.3771850 -10.8957000 255 0 0
3.2254700 -0.6938120 -11.7783000 255 0 0
3.2155000 -0.6863330 -11.7446000 255 0 0
2.9613700 -0.3981810 -10.9131000 255 0 0
2.9667600 -0.4192560 -10.9306000 255 0 0
3.0357000 -0.5013830 -11.1495000 255 0 0
3.0973000 -0.5985500 -11.3511000 255 0 0
2.9471300 0.7977590 -11.1472000 255 0 0
