3.6218400 1.1011400 -12.5677000 255 255 0
3.5282500 1.9263100 -12.4443000 255 255 0
3.4786200 1.6992600 -12.2257000 255 255 0
3.4761900 1.6725600 -12.2188000 255 255 0
3.5146900 1.3812900 -12.2755000 255 255 0
3.5155300 1.9167000 -12.3830000 255 255 0
3.4798800 1.8143200 -12.2489000 255 255 0
3.4810600 1.7260100 -12.2327000 255 255 0
3.5075600 1.4271700 -12.2446000 255 255 0
3.5164300 1.4075700 -12.2726000 255 255 0
3.5092800 1.9117300 -12.3526000 255 255 0
3.4811500 1.7761400 -12.2317000 255 255 0
3.4842400 1.7533300 -12.2419000 255 255 0
3.5041000 1.4749800 -12.2327000 255 255 0
3.5069600 1.4517900 -12.2421000 255 255 0
3.5043600 1.9036600 -12.3249000 255 255 0
3.4890600 1.8069900 -12.2556000 255 255 0
3.4842500 1.6694900 -12.2105000 255 255 0
3.4979100 1.5209400 -12.2123000 255 255 0
3.5001700 1.4974500 -12.2200000 255 255 0
3.5036800 1.8854900 -12.3055000 255 255 0
3.4942300 1.5434800 -12.2004000 255 255 0
3.4986700 1.5962900 -12.2129000 255 255 0
3.4976300 1.5706400 -12.2102000 255 255 0
3.5674500 1.3305900 -12.3711000 255 255 0
3.5774500 1.9332500 -12.5412000 255 255 0
3.5054400 1.8614500 -12.2908000 255 255 0
3.5001300 1.6472000 -12.2161000 255 255 0
3.5001200 1.6222200 -12.2167000 255 255 0
3.5711100 1.3020800 -12.3749000 255 255 0
3.5657900 1.2820000 -12.3525000 255 255 0
3.5560300 1.2662200 -12.3172000 255 255 0
3.6372400 1.1631700 -12.5473000 255 255 0
3.6473200 1.1278100 -12.5696000 255 255 0
3.5587200 1.9371600 -12.4680000 255 255 0
3.5072200 1.8373700 -12.2761000 255 255 0
3.5025700 1.6738700 -12.2230000 255 255 0
3.6492500 1.1002300 -12.5682000 255 255 0
3.6507800 1.0730000 -12.5656000 255 255 0
3.5070500 1.7270300 -12.2356000 255 255 0
3.5044600 1.7001800 -12.2282000 255 255 0
3.5438000 1.3817000 -12.2746000 255 255 0
3.5406500 1.9201000 -12.3782000 255 255 0
3.5527500 1.9114700 -12.4199000 255 255 0
3.5090000 1.8132400 -12.2614000 255 255 0
3.5097400 1.7539900 -12.2432000 255 255 0
3.5378800 1.4307300 -12.2607000 255 255 0
3.5440300 1.4094200 -12.2802000 255 255 0
3.5346600 1.9144400 -12.3484000 255 255 0
3.5108000 1.7798200 -12.2458000 255 255 0
3.5316000 1.4768800 -12.2403000 255 255 0
3.5365300 1.4549400 -12.2560000 255 255 0
3.5286900 1.9087900 -12.3187000 255 255 0
3.5160000 1.8086800 -12.2613000 255 255 0
3.5289300 1.5251600 -12.2308000 255 255 0
3.5309800 1.5014800 -12.2378000 255 255 0
3.5291800 1.8878700 -12.3015000 255 255 0
3.5286500 1.5749600 -12.2288000 255 255 0
3.5240200 1.5469700 -12.2152000 255 255 0
3.5267900 1.6236900 -12.2218000 255 255 0
3.5285100 1.5998600 -12.2277000 255 255 0
3.5743600 1.3979300 -12.3276000 255 255 0
3.5936400 1.3302600 -12.3699000 255 255 0
3.6018600 1.2975300 -12.3869000 255 255 0
3.5949900 1.2788400 -12.3601000 255 255 0
3.5881500 1.2602200 -12.3333000 255 255 0
3.6045100 1.9325600 -12.5398000 255 255 0
3.5318400 1.8617900 -12.2885000 255 255 0
3.5270500 1.6488600 -12.2220000 255 255 0
3.6742800 1.1273200 -12.5688000 255 255 0
3.6768800 1.0991100 -12.5692000 255 255 0
3.5345000 1.8356500 -12.2755000 255 255 0
3.5303800 1.7011400 -12.2309000 255 255 0
3.5281200 1.6745800 -12.2246000 255 255 0
3.6787600 1.0715500 -12.5676000 255 255 0
3.5324200 1.7276000 -12.2365000 255 255 0
3.5623200 1.4306900 -12.2588000 255 255 0
3.5588000 1.9397600 -12.3598000 255 255 0
3.5793800 1.9114600 -12.4179000 255 255 0
3.5371700 1.8094400 -12.2625000 255 255 0
3.5352600 1.7797200 -12.2439000 255 255 0
3.5361100 1.7552500 -12.2471000 255 255 0
3.5613500 1.4551200 -12.2552000 255 255 0
3.5638200 1.3761800 -12.2406000 255 255 0
3.5606100 1.9157900 -12.3453000 255 255 0
3.5398500 1.7831800 -12.2494000 255 255 0
3.5589900 1.5037000 -12.2468000 255 255 0
3.5573300 1.4776500 -12.2423000 255 255 0
3.5665600 1.4070700 -12.2502000 255 255 0
3.5579500 1.9022800 -12.3220000 255 255 0
3.5551000 1.5512400 -12.2337000 255 255 0
3.5588500 1.5286300 -12.2457000 255 255 0
3.5585800 1.5785000 -12.2437000 255 255 0
3.5572900 1.8841100 -12.3026000 255 255 0
3.5539700 1.6254900 -12.2284000 255 255 0
3.5560300 1.6018500 -12.2353000 255 255 0
3.6281200 1.2971900 -12.3856000 255 255 0
3.6272800 1.2728300 -12.3763000 255 255 0
3.6173400 1.2570400 -12.3408000 255 255 0
3.6074500 1.2413200 -12.3055000 255 255 0
3.6315800 1.9318800 -12.5384000 255 255 0
3.5591100 1.8600700 -12.2879000 255 255 0
3.5518600 1.6740500 -12.2206000 255 255 0
3.5509600 1.6484600 -12.2185000 255 255 0
3.7012700 1.1268100 -12.5680000 255 255 0
3.7042500 1.0982700 -12.5695000 255 255 0
3.7061600 1.0706900 -12.5679000 255 255 0
3.5543100 1.7007300 -12.2274000 255 255 0
3.5609300 1.8359900 -12.2732000 255 255 0
3.5608800 1.7553900 -12.2461000 255 255 0
3.5563200 1.7271400 -12.2329000 255 255 0
3.5831100 1.4534400 -12.2451000 255 255 0
3.5834600 1.4286500 -12.2468000 255 255 0
3.6061000 1.9112600 -12.4161000 255 255 0
3.5627600 1.8118500 -12.2585000 255 255 0
3.5596100 1.7795500 -12.2416000 255 255 0
3.5813800 1.4773800 -12.2393000 255 255 0
3.5864200 1.9174300 -12.3419000 255 255 0
3.5630100 1.7914500 -12.2408000 255 255 0
3.5819300 1.5277200 -12.2397000 255 255 0
3.5823200 1.5029700 -12.2415000 255 255 0
3.5813100 1.5773400 -12.2365000 255 255 0
3.5797100 1.5513100 -12.2323000 255 255 0
3.5895300 1.4034900 -12.2272000 255 255 0
3.5746900 1.3648300 -12.1739000 255 255 0
3.5875100 1.8951800 -12.3258000 255 255 0
3.5799600 1.6014700 -12.2318000 255 255 0
3.5876000 1.8752400 -12.3078000 255 255 0
3.5746100 1.6479000 -12.2144000 255 255 0
3.5776500 1.6249400 -12.2242000 255 255 0
3.6543800 1.2968600 -12.3844000 255 255 0
3.6535500 1.2725000 -12.3751000 255 255 0
3.6553800 1.2456600 -12.3734000 255 255 0
3.6740900 1.2029100 -12.4198000 255 255 0
3.5877000 1.8552700 -12.2898000 255 255 0
3.5733900 1.6970100 -12.2094000 255 255 0
3.5735200 1.6721300 -12.2104000 255 255 0
3.7283200 1.1262600 -12.5674000 255 255 0
3.7280900 1.1008000 -12.5596000 255 255 0
3.7309000 1.0724000 -12.5605000 255 255 0
3.5781000 1.7252400 -12.2229000 255 255 0
3.5895500 1.8311700 -12.2751000 255 255 0
3.5827000 1.7785000 -12.2355000 255 255 0
3.5844500 1.7546800 -12.2414000 255 255 0
3.5825700 1.6176100 -12.2020000 255 255 0
3.6132600 1.4568800 -12.2604000 255 255 0
3.6170900 1.4341300 -12.2725000 255 255 0
3.5914100 1.8070200 -12.2604000 255 255 0
3.6038000 1.5011000 -12.2307000 255 255 0
3.6076100 1.4784500 -12.2428000 255 255 0
3.6006600 1.5490600 -12.2200000 255 255 0
3.6028800 1.5255000 -12.2273000 255 255 0
3.6129200 1.9174700 -12.3399000 255 255 0
3.5944500 1.7800600 -12.2479000 255 255 0
3.6014300 1.5995000 -12.2211000 255 255 0
3.6015600 1.5746100 -12.2221000 255 255 0
3.6035600 1.3652400 -12.1730000 255 255 0
3.6156700 1.8914300 -12.3269000 255 255 0
3.6013000 1.6243900 -12.2200000 255 255 0
3.6216100 1.4058900 -12.2373000 255 255 0
3.6172000 1.8681700 -12.3116000 255 255 0
3.5966600 1.6712400 -12.2048000 255 255 0
3.5987300 1.6476600 -12.2117000 255 255 0
3.6585300 1.3167100 -12.3204000 255 255 0
3.6798200 1.2721700 -12.3739000 255 255 0
3.6823600 1.2446800 -12.3741000 255 255 0
3.6962400 1.2065700 -12.4065000 255 255 0
3.5936200 1.6941300 -12.1950000 255 255 0
3.7177600 1.1610700 -12.4603000 255 255 0
3.7425300 1.1121900 -12.5233000 255 255 0
3.7561500 1.0735900 -12.5547000 255 255 0
3.6181000 1.8463600 -12.2951000 255 255 0
3.6100900 1.7554200 -12.2431000 255 255 0
3.6097500 1.7301300 -12.2427000 255 255 0
3.6317900 1.4532700 -12.2407000 255 255 0
3.6398300 1.4330600 -12.2653000 255 255 0
3.6158400 1.8318500 -12.2726000 255 255 0
3.6078700 1.7789300 -12.2357000 255 255 0
3.6270900 1.5003600 -12.2255000 255 255 0
3.6303900 1.4774100 -12.2359000 255 255 0
3.6171400 1.8090900 -12.2567000 255 255 0
3.6237900 1.5232800 -12.2150000 255 255 0
3.6217700 1.5718900 -12.2077000 255 255 0
3.6215600 1.5468200 -12.2077000 255 255 0
3.6404800 1.9150900 -12.3398000 255 255 0
3.6170700 1.7894800 -12.2383000 255 255 0
3.6228700 1.5975300 -12.2103000 255 255 0
3.6434700 1.8885500 -12.3273000 255 255 0
3.6254600 1.6491600 -12.2168000 255 255 0
3.6244100 1.6234900 -12.2143000 255 255 0
3.6475500 1.4043100 -12.2254000 255 255 0
3.6324400 1.3656500 -12.1721000 255 255 0
3.6250300 1.7870100 -12.2435000 255 255 0
3.6260300 1.6994900 -12.2171000 255 255 0
3.6246800 1.6736100 -12.2138000 255 255 0
3.6821900 1.3186100 -12.3123000 255 255 0
3.6967800 1.2803400 -12.3464000 255 255 0
3.7006000 1.2517600 -12.3502000 255 255 0
3.6997700 1.2274300 -12.3409000 255 255 0
3.7236500 1.1800300 -12.4010000 255 255 0
3.7309900 1.1478600 -12.4146000 255 255 0
3.6460500 1.8629200 -12.3139000 255 255 0
3.6289700 1.7826800 -12.2449000 255 255 0
3.6305800 1.7275900 -12.2300000 255 255 0
3.6526200 1.4261300 -12.2288000 255 255 0
3.7492000 1.1052700 -12.4586000 255 255 0
3.7838000 1.0467800 -12.5485000 255 255 0
3.6473600 1.8401700 -12.2981000 255 255 0
3.6373900 1.7573000 -12.2496000 255 255 0
3.6512800 1.4752500 -12.2236000 255 255 0
3.6524800 1.4510100 -12.2278000 255 255 0
3.6447100 1.8265800 -12.2748000 255 255 0
3.6403300 1.8095300 -12.2570000 255 255 0
3.6367400 1.7819200 -12.2470000 255 255 0
3.6465100 1.5222100 -12.2082000 255 255 0
3.6503400 1.4996300 -12.2202000 255 255 0
3.6526300 1.8433700 -12.2929000 255 255 0
3.6437400 1.5454100 -12.1994000 255 255 0
3.6459000 1.5966300 -12.2045000 255 255 0
3.6436500 1.5702700 -12.1985000 255 255 0
3.6679000 1.9130500 -12.3395000 255 255 0
3.6470800 1.6223300 -12.2073000 255 255 0
3.7941800 1.8882800 -12.7095000 255 255 0
3.6686300 1.8917500 -12.3226000 255 255 0
3.6468300 1.6720700 -12.2052000 255 255 0
3.6489300 1.6484900 -12.2121000 255 255 0
3.6921700 1.3576000 -12.2730000 255 255 0
3.7051900 1.3210600 -12.3024000 255 255 0
3.7861700 1.8860000 -12.6757000 255 255 0
3.6437500 1.6949600 -12.1954000 255 255 0
3.6628600 1.4178100 -12.1853000 255 255 0
3.6741500 1.3994900 -12.2191000 255 255 0
3.7229900 1.2800100 -12.3452000 255 255 0
3.7342300 1.2446800 -12.3696000 255 255 0
3.7344700 1.2193100 -12.3633000 255 255 0
3.7361600 1.1925900 -12.3610000 255 255 0
3.7416300 1.1623100 -12.3692000 255 255 0
3.7433200 1.1354900 -12.3669000 255 255 0
3.6729400 1.8622300 -12.3124000 255 255 0
3.6547100 1.7273100 -12.2272000 255 255 0
3.6731200 1.4487500 -12.2148000 255 255 0
3.6641400 1.3967700 -12.1807000 255 255 0
3.7943700 1.0618800 -12.5018000 255 255 0
3.6656800 1.7849300 -12.2582000 255 255 0
3.6639300 1.7586300 -12.2538000 255 255 0
3.6731700 1.4986500 -12.2137000 255 255 0
3.6724800 1.4733000 -12.2123000 255 255 0
3.6778000 1.4636400 -12.2279000 255 255 0
3.6784800 1.8298500 -12.3045000 255 255 0
3.6693000 1.8125700 -12.2683000 255 255 0
3.6713800 1.5224900 -12.2078000 255 255 0
3.6736100 1.8212900 -12.2771000 255 255 0
3.6678900 1.5701600 -12.1963000 255 255 0
3.6687200 1.5457600 -12.1993000 255 255 0
3.6706900 1.6217900 -12.2032000 255 255 0
3.6685400 1.5954900 -12.1975000 255 255 0
3.6723200 1.6477900 -12.2073000 255 255 0
3.6835400 1.4616800 -12.1961000 255 255 0
3.6897200 1.4529200 -12.2165000 255 255 0
3.6688200 1.6953700 -12.1957000 255 255 0
3.6710700 1.6719200 -12.2030000 255 255 0
3.6997400 1.4146800 -12.2313000 255 255 0
3.7097500 1.3894900 -12.2553000 255 255 0
3.7121000 1.3728100 -12.2517000 255 255 0
3.7135400 1.3613700 -12.2589000 255 255 0
3.7281700 1.3235100 -12.2926000 255 255 0
3.7304500 1.2965500 -12.2920000 255 255 0
3.6794200 1.7274400 -12.2261000 255 255 0
3.7483800 1.2553700 -12.3347000 255 255 0
3.7601500 1.2195500 -12.3603000 255 255 0
3.7643000 1.1905900 -12.3648000 255 255 0
3.7661900 1.1636500 -12.3629000 255 255 0
3.7703500 1.1345500 -12.3674000 255 255 0
3.6891500 1.7590600 -12.2540000 255 255 0
3.6925700 1.4707300 -12.1980000 255 255 0
3.8211300 1.0615400 -12.5006000 255 255 0
3.7071800 1.8448700 -12.3246000 255 255 0
3.6928000 1.7866500 -12.2640000 255 255 0
3.6961600 1.5227100 -12.2072000 255 255 0
3.6966000 1.4980500 -12.2091000 255 255 0
3.7056100 1.8287300 -12.3034000 255 255 0
3.6958200 1.8138700 -12.2722000 255 255 0
3.6936600 1.5461000 -12.1992000 255 255 0
3.7009000 1.8197700 -12.2763000 255 255 0
3.6957600 1.5972600 -12.2040000 255 255 0
3.6935900 1.5709700 -12.1984000 255 255 0
3.6972700 1.6231600 -12.2078000 255 255 0
3.6970200 1.6729000 -12.2057000 255 255 0
3.6991400 1.6493200 -12.2126000 255 255 0
3.7116000 1.4347800 -12.1945000 255 255 0
3.7222500 1.4179000 -12.2228000 255 255 0
3.6938900 1.6957900 -12.1959000 255 255 0
3.7218000 1.4012800 -12.2158000 255 255 0
3.7255800 1.3732800 -12.2194000 255 255 0
3.7386600 1.3369900 -12.2485000 255 255 0
3.7425000 1.3087700 -12.2521000 255 255 0
3.7746000 1.2550400 -12.3335000 255 255 0
3.7223400 1.8903800 -12.3197000 255 255 0
3.7060200 1.7288200 -12.2306000 255 255 0
3.7152600 1.4448400 -12.1920000 255 255 0
3.7871000 1.2186400 -12.3609000 255 255 0
3.7920100 1.1890000 -12.3673000 255 255 0
3.7969400 1.1592700 -12.3738000 255 255 0
3.7972100 1.1337900 -12.3674000 255 255 0
3.7969900 1.1087500 -12.3597000 255 255 0
3.7267400 1.8608500 -12.3096000 255 255 0
3.7180500 1.7870700 -12.2642000 255 255 0
3.7143700 1.7594800 -12.2542000 255 255 0
3.7213800 1.4982700 -12.2084000 255 255 0
3.7171300 1.4708300 -12.1968000 255 255 0
3.8470600 1.0363800 -12.4899000 255 255 0
3.8627600 0.9958970 -12.5256000 255 255 0
3.7217300 1.8147300 -12.2743000 255 255 0
3.7211300 1.5230500 -12.2071000 255 255 0
3.7328200 1.8274600 -12.3024000 255 255 0
3.7208700 1.5727500 -12.2050000 255 255 0
3.7185800 1.5464100 -12.1990000 255 255 0
3.7274700 1.8199100 -12.2742000 255 255 0
3.7222200 1.5985300 -12.2082000 255 255 0
3.7259400 1.6508200 -12.2177000 255 255 0
3.7248500 1.6251400 -12.2152000 255 255 0
3.8335900 1.0601200 -12.4122000 255 255 0
3.7251500 1.6752800 -12.2147000 255 255 0
3.7429000 1.4296900 -12.2085000 255 255 0
3.7457800 1.4025700 -12.2095000 255 255 0
3.7265400 1.7011700 -12.2180000 255 255 0
3.7523800 1.3721500 -12.2207000 255 255 0
3.7599500 1.3407800 -12.2345000 255 255 0
3.7656800 1.3109400 -12.2432000 255 255 0
3.7692300 1.2829500 -12.2460000 255 255 0
3.8000000 1.2304000 -12.3230000 255 255 0
3.7404300 1.7604500 -12.2568000 255 255 0
3.7361900 1.7325500 -12.2452000 255 255 0
3.7426900 1.4715300 -12.1984000 255 255 0
3.7453600 1.4481900 -12.2068000 255 255 0
3.8183800 1.1886600 -12.3661000 255 255 0
3.8304600 1.1524300 -12.3919000 255 255 0
3.8312500 1.1264200 -12.3870000 255 255 0
3.8352800 1.0973900 -12.3908000 255 255 0
3.8540500 1.0545300 -12.4347000 255 255 0
3.7536500 1.8601600 -12.3081000 255 255 0
3.7446800 1.7884300 -12.2684000 255 255 0
3.7434300 1.5217800 -12.1993000 255 255 0
3.7431900 1.4967200 -12.1992000 255 255 0
3.7435500 1.5467600 -12.1989000 255 255 0
3.7550400 1.8374100 -12.2923000 255 255 0
3.7460700 1.5732300 -12.2055000 255 255 0
3.7513600 1.6264300 -12.2194000 255 255 0
3.7487100 1.5998100 -12.2124000 255 255 0
3.7587500 1.8094400 -12.2806000 255 255 0
3.7527700 1.6523100 -12.2228000 255 255 0
3.7600400 1.7868500 -12.2646000 255 255 0
3.7555000 1.7040800 -12.2292000 255 255 0
3.7543400 1.6783200 -12.2266000 255 255 0
3.7680700 1.4299000 -12.2056000 255 255 0
3.7734600 1.4006400 -12.2134000 255 255 0
3.7788800 1.3712800 -12.2212000 255 255 0
3.7843100 1.3418300 -12.2290000 255 255 0
3.7617600 1.7332200 -12.2465000 255 255 0
3.7682600 1.4473300 -12.2007000 255 255 0
3.7866300 1.3150400 -12.2283000 255 255 0
3.7920900 1.2854200 -12.2362000 255 255 0
3.7944200 1.2585200 -12.2355000 255 255 0
3.8447400 1.1883300 -12.3648000 255 255 0
3.7667600 1.7616100 -12.2602000 255 255 0
3.7660100 1.4957900 -12.1930000 255 255 0
3.7669100 1.4714400 -12.1962000 255 255 0
3.8564500 1.1525100 -12.3894000 255 255 0
3.8612100 1.1228800 -12.3952000 255 255 0
3.8637500 1.0952300 -12.3949000 255 255 0
3.8590600 1.0722900 -12.3777000 255 255 0
3.8668500 1.0670100 -12.3961000 255 255 0
3.8798500 1.0294900 -12.4241000 255 255 0
3.7685100 1.5221800 -12.1995000 255 255 0
3.7725700 1.5744900 -12.2097000 255 255 0
3.7711900 1.5487100 -12.2065000 255 255 0
3.8829600 0.9981740 -12.4111000 255 255 0
3.7742500 1.6004800 -12.2139000 255 255 0
3.7789900 1.6534100 -12.2260000 255 255 0
3.7763400 1.6267500 -12.2191000 255 255 0
3.7857200 1.8087500 -12.2792000 255 255 0
3.7824400 1.6806100 -12.2352000 255 255 0
3.8841800 1.0366100 -12.3945000 255 255 0
3.7886900 1.7824400 -12.2661000 255 255 0
3.7864600 1.7082400 -12.2459000 255 255 0
3.7911400 1.4464700 -12.1947000 255 255 0
3.7934200 1.4299600 -12.2032000 255 255 0
3.7961700 1.4030000 -12.2037000 255 255 0
3.8016200 1.3736700 -12.2115000 255 255 0
3.8043900 1.3465900 -12.2120000 255 255 0
3.8100500 1.3169300 -12.2203000 255 255 0
3.7888200 1.7348400 -12.2520000 255 255 0
3.7885600 1.4698600 -12.1868000 255 255 0
3.8149200 1.2878800 -12.2265000 255 255 0
3.8198000 1.2587500 -12.2326000 255 255 0
3.8516400 1.2054200 -12.3112000 255 255 0
3.8825600 1.1524900 -12.3873000 255 255 0
3.7916800 1.7560700 -12.2530000 255 255 0
3.7917100 1.5214800 -12.1944000 255 255 0
3.7891100 1.4950500 -12.1877000 255 255 0
3.8825500 1.1272300 -12.3801000 255 255 0
3.8863200 1.0985100 -12.3831000 255 255 0
3.8934000 1.0666700 -12.3949000 255 255 0
3.9065000 1.0291500 -12.4228000 255 255 0
3.7930800 1.5471900 -12.1976000 255 255 0
3.9003800 1.0189800 -12.3881000 255 255 0
3.7966700 1.5992300 -12.2064000 255 255 0
3.7964100 1.5741400 -12.2064000 255 255 0
3.7990300 1.6256400 -12.2124000 255 255 0
3.8143600 1.8239800 -12.2992000 255 255 0
3.8022200 1.6526100 -12.2208000 255 255 0
3.8985500 1.0534000 -12.3650000 255 255 0
3.8157000 1.8013900 -12.2831000 255 255 0
3.8067400 1.6804700 -12.2329000 255 255 0
3.7999100 1.6783400 -12.2120000 255 255 0
3.8006600 1.6408700 -12.2071000 255 255 0
3.8130300 1.4202000 -12.1866000 255 255 0
3.9271300 0.9860900 -12.4219000 255 255 0
3.8116700 1.7086600 -12.2462000 255 255 0
3.7957500 1.6679800 -12.1861000 255 255 0
3.8108200 1.4686600 -12.1791000 255 255 0
3.8128900 1.4449800 -12.1856000 255 255 0
3.8188500 1.4053600 -12.1941000 255 255 0
3.8229700 1.3772100 -12.1982000 255 255 0
3.8275700 1.3486000 -12.2036000 255 255 0
3.8298000 1.3219800 -12.2026000 255 255 0
3.8408900 1.2875500 -12.2253000 255 255 0
3.8180400 1.7765400 -12.2688000 255 255 0
3.8117600 1.4940600 -12.1811000 255 255 0
3.8560700 1.2493700 -12.2588000 255 255 0
3.8616900 1.2194800 -12.2668000 255 255 0
3.8770500 1.1807800 -12.3007000 255 255 0
3.8958300 1.1387800 -12.3437000 255 255 0
3.8210700 1.7501500 -12.2557000 255 255 0
3.8133500 1.5198600 -12.1849000 255 255 0
3.9114900 1.0993700 -12.3783000 255 255 0
3.9173000 1.0687600 -12.3866000 255 255 0
3.9298000 1.0318800 -12.4127000 255 255 0
3.9373500 0.9994370 -12.4255000 255 255 0
3.8164100 1.5977600 -12.1978000 255 255 0
3.8168700 1.5717400 -12.1935000 255 255 0
3.8162300 1.5464500 -12.1923000 255 255 0
3.8252800 1.7210600 -12.2446000 255 255 0
3.8146800 1.5953100 -12.1866000 255 255 0
3.8271400 1.6971700 -12.2294000 255 255 0
3.8281700 1.6390900 -12.2109000 255 255 0
3.8270500 1.6776400 -12.2106000 255 255 0
3.8282800 1.6145800 -12.2044000 255 255 0
3.8340500 1.4431900 -12.1750000 255 255 0
3.8361300 1.4195200 -12.1814000 255 255 0
3.8472200 1.7907400 -12.2897000 255 255 0
3.8191100 1.6757400 -12.1780000 255 255 0
3.8333500 1.4924600 -12.1717000 255 255 0
3.8319700 1.4668400 -12.1685000 255 255 0
3.8438600 1.4057100 -12.1908000 255 255 0
3.8478000 1.3777600 -12.1943000 255 255 0
3.8517400 1.3497400 -12.1978000 255 255 0
3.8557000 1.3216500 -12.2014000 255 255 0
3.8636700 1.2900200 -12.2155000 255 255 0
3.8708700 1.2589400 -12.2276000 255 255 0
3.8491200 1.7669100 -12.2745000 255 255 0
3.8366700 1.5192500 -12.1803000 255 255 0
3.8845800 1.2220100 -12.2569000 255 255 0
3.9033000 1.1804400 -12.2995000 255 255 0
3.9189100 1.1414000 -12.3337000 255 255 0
3.9247000 1.1110200 -12.3419000 255 255 0
3.8268600 1.6385400 -12.1730000 255 255 0
3.8382700 1.5450600 -12.1841000 255 255 0
3.9539000 1.0592600 -12.4119000 255 255 0
3.9564400 1.0315300 -12.4114000 255 255 0
3.9623500 1.0006500 -12.4198000 255 255 0
3.8504900 1.7442200 -12.2584000 255 255 0
3.8417800 1.5963900 -12.1970000 255 255 0
3.8345600 1.5925800 -12.1723000 255 255 0
3.8372800 1.5693500 -12.1806000 255 255 0
3.8441600 1.5797000 -12.1846000 255 255 0
3.8575200 1.7089600 -12.2522000 255 255 0
3.8621900 1.6788400 -12.2418000 255 255 0
3.8600000 1.4192700 -12.1784000 255 255 0
3.8550400 1.4661400 -12.1633000 255 255 0
3.8569100 1.4423700 -12.1691000 255 255 0
3.8696700 1.4053900 -12.1896000 255 255 0
3.8785400 1.7806900 -12.2958000 255 255 0
3.8605200 1.6628100 -12.2202000 255 255 0
3.8566400 1.4918700 -12.1671000 255 255 0
3.8719200 1.3788800 -12.1886000 255 255 0
3.8765800 1.3502900 -12.1939000 255 255 0
3.8808000 1.3220200 -12.1980000 255 255 0
3.8870500 1.2919200 -12.2075000 255 255 0
3.8939800 1.2611400 -12.2187000 255 255 0
3.8976900 1.2330900 -12.2215000 255 255 0
3.8609000 1.5440400 -12.1775000 255 255 0
3.8594600 1.5183400 -12.1742000 255 255 0
3.9098700 1.1974900 -12.2465000 255 255 0
3.9287300 1.1557900 -12.2890000 255 255 0
3.9477700 1.1136700 -12.3319000 255 255 0
3.9670200 1.0711000 -12.3753000 255 255 0
3.8792500 1.7594900 -12.2785000 255 255 0
3.8684000 1.6254500 -12.2153000 255 255 0
3.8612200 1.5691000 -12.1777000 255 255 0
3.9796900 1.0342700 -12.4013000 255 255 0
3.9841800 1.0047400 -12.4058000 255 255 0
3.9891800 0.9746870 -12.4116000 255 255 0
3.9907900 0.9477110 -12.4086000 255 255 0
3.8847400 1.7277700 -12.2695000 255 255 0
3.8683300 1.6058100 -12.1965000 255 255 0
3.8596000 1.5929900 -12.1726000 255 255 0
3.8660600 1.6217900 -12.1898000 255 255 0
3.8910600 1.6941800 -12.2620000 255 255 0
3.8818900 1.4179300 -12.1699000 255 255 0
3.8816100 1.4426000 -12.1685000 255 255 0
3.8975400 1.6601200 -12.2546000 255 255 0
3.8827700 1.4929100 -12.1704000 255 255 0
3.8813500 1.4672800 -12.1671000 255 255 0
3.8914700 1.4084100 -12.1778000 255 255 0
3.8954600 1.3804900 -12.1813000 255 255 0
3.9903600 0.9580390 -12.3598000 255 255 0
3.9065700 1.7779100 -12.2960000 255 255 0
3.8817500 1.5171600 -12.1669000 255 255 0
3.8991400 1.3527700 -12.1840000 255 255 0
3.9060600 1.3222400 -12.1951000 255 255 0
3.9123600 1.2921500 -12.2046000 255 255 0
3.9147800 1.2653100 -12.2039000 255 255 0
3.9204600 1.2356000 -12.2117000 255 255 0
3.9229000 1.2086500 -12.2110000 255 255 0
3.8962600 1.6431900 -12.2336000 255 255 0
3.8841500 1.5434000 -12.1728000 255 255 0
3.9351800 1.1729600 -12.2360000 255 255 0
3.9741700 1.1133200 -12.3307000 255 255 0
3.9935500 1.0707600 -12.3740000 255 255 0
4.0054600 1.0346900 -12.3978000 255 255 0
3.9119500 1.7465800 -12.2868000 255 255 0
3.8972600 1.6211800 -12.2167000 255 255 0
3.8899000 1.5965500 -12.1873000 255 255 0
3.8885200 1.5708400 -12.1842000 255 255 0
4.0079200 1.0070500 -12.3970000 255 255 0
4.0114800 0.9783670 -12.3989000 255 255 0
4.0157900 0.9489380 -12.4029000 255 255 0
3.8979900 1.6263500 -12.2089000 255 255 0
4.0184500 1.7338900 -12.5747000 255 255 0
3.9147700 1.7207600 -12.2731000 255 255 0
3.9108400 1.6591700 -12.2437000 255 255 0
3.9025600 1.4407500 -12.1575000 255 255 0
3.9013800 1.4153100 -12.1550000 255 255 0
3.9208300 1.6878300 -12.2650000 255 255 0
3.9030800 1.4658400 -12.1583000 255 255 0
3.9915000 1.0087700 -12.3098000 255 255 0
3.9249700 1.6590300 -12.2534000 255 255 0
3.9066800 1.4926900 -12.1675000 255 255 0
3.9159000 1.4092200 -12.1731000 255 255 0
3.9166700 1.3840100 -12.1681000 255 255 0
3.9211100 1.3557100 -12.1727000 255 255 0
4.0161800 0.9576910 -12.3572000 255 255 0
3.9073000 1.5427200 -12.1678000 255 255 0
3.9047900 1.5164300 -12.1617000 255 255 0
3.9261200 1.3268700 -12.1787000 255 255 0
3.9311400 1.2979300 -12.1848000 255 255 0
3.9374900 1.2677900 -12.1942000 255 255 0
3.9412400 1.2398000 -12.1969000 255 255 0
3.9482900 1.2088900 -12.2081000 255 255 0
3.9580000 1.1755300 -12.2262000 255 255 0
3.9248300 1.6395800 -12.2345000 255 255 0
3.9124700 1.5705900 -12.1813000 255 255 0
3.9604900 1.1484400 -12.2255000 255 255 0
3.9796000 1.1064900 -12.2679000 255 255 0
4.0192600 1.0458500 -12.3634000 255 255 0
4.0316100 1.0093600 -12.3881000 255 255 0
3.9386200 1.7468800 -12.2846000 255 255 0
3.9171100 1.5982300 -12.1933000 255 255 0
4.0319600 0.9836460 -12.3817000 255 255 0
4.0338800 0.9564740 -12.3794000 255 255 0
3.9281700 1.6297900 -12.2229000 255 255 0
3.9425000 1.7188600 -12.2726000 255 255 0
3.9271600 1.4161400 -12.1574000 255 255 0
3.9279300 1.4413600 -12.1588000 255 255 0
4.0766100 1.6686600 -12.6270000 255 255 0
3.9463800 1.6907600 -12.2606000 255 255 0
3.9334800 1.4941000 -12.1726000 255 255 0
3.9316700 1.4682400 -12.1683000 255 255 0
3.9478400 1.6678900 -12.2444000 255 255 0
3.9324700 1.5183600 -12.1691000 255 255 0
3.9391200 1.4110100 -12.1652000 255 255 0
3.9410800 1.3848500 -12.1633000 255 255 0
3.9417400 1.3597300 -12.1580000 255 255 0
3.9461200 1.3314700 -12.1623000 255 255 0
3.9531300 1.3009300 -12.1734000 255 255 0
4.0406600 0.9351480 -12.3410000 255 255 0
3.9350000 1.5446600 -12.1753000 255 255 0
3.9568900 1.2730600 -12.1761000 255 255 0
3.9632800 1.2428600 -12.1855000 255 255 0
3.9703700 1.2119800 -12.1967000 255 255 0
3.9741700 1.1838700 -12.1994000 255 255 0
3.9741800 1.1590300 -12.1923000 255 255 0
4.0731500 1.6358800 -12.5829000 255 255 0
3.9402000 1.5725600 -12.1888000 255 255 0
3.9858000 1.1239100 -12.2151000 255 255 0
4.0253200 1.0637600 -12.3095000 255 255 0
4.0449700 1.0209300 -12.3527000 255 255 0
4.0475800 0.9932630 -12.3522000 255 255 0
4.0495000 0.9661710 -12.3498000 255 255 0
3.9497500 1.6031000 -12.2141000 255 255 0
4.0597200 0.9314480 -12.3687000 255 255 0
3.9632300 1.6361100 -12.2500000 255 255 0
3.9532200 1.4419200 -12.1598000 255 255 0
3.9513600 1.4161100 -12.1554000 255 255 0
3.9567000 1.4686500 -12.1685000 255 255 0
3.9742900 1.6885400 -12.2604000 255 255 0
3.9567500 1.4935100 -12.1680000 255 255 0
3.9813400 1.6216000 -12.2579000 255 255 0
3.9600600 1.5450800 -12.1755000 255 255 0
3.9548400 1.5172600 -12.1621000 255 255 0
3.9654700 1.3856800 -12.1585000 255 255 0
3.9674500 1.3594900 -12.1566000 255 255 0
3.9729400 1.3303300 -12.1637000 255 255 0
3.9803300 1.2995000 -12.1756000 255 255 0
4.0483500 0.9801880 -12.2932000 255 255 0
4.0651300 0.9126020 -12.3247000 255 255 0
4.0906500 1.6568700 -12.5635000 255 255 0
3.9776600 1.6615800 -12.2474000 255 255 0
3.9666400 1.5737600 -12.1926000 255 255 0
3.9718200 1.3760000 -12.1633000 255 255 0
3.9885800 1.2678300 -12.1897000 255 255 0
3.9909500 1.2410800 -12.1887000 255 255 0
3.9943900 1.2133700 -12.1904000 255 255 0
3.9960600 1.1871400 -12.1875000 255 255 0
3.9998800 1.1590100 -12.1902000 255 255 0
4.0085900 1.1265100 -12.2053000 255 255 0
3.9786600 1.6397200 -12.2303000 255 255 0
3.9801300 1.6065800 -12.2284000 255 255 0
4.0161500 1.0949200 -12.2174000 255 255 0
4.0305000 1.0571700 -12.2469000 255 255 0
4.0706900 0.9960160 -12.3421000 255 255 0
4.0837200 0.9589140 -12.3680000 255 255 0
4.0835900 0.9336280 -12.3604000 255 255 0
4.0890300 0.9032240 -12.3669000 255 255 0
3.9783700 1.4176000 -12.1611000 255 255 0
3.9805200 1.3939400 -12.1675000 255 255 0
3.9817200 1.4442200 -12.1694000 255 255 0
3.9936000 1.6286600 -12.2332000 255 255 0
3.9823000 1.4942000 -12.1696000 255 255 0
3.9833500 1.4699500 -12.1731000 255 255 0
3.9798600 1.5176700 -12.1623000 255 255 0
4.0039800 1.6825400 -12.2631000 255 255 0
3.9878200 1.5470300 -12.1830000 255 255 0
3.9922000 1.3600400 -12.1527000 255 255 0
3.9926800 1.3350700 -12.1469000 255 255 0
4.0029200 1.3019400 -12.1659000 255 255 0
4.0142700 1.2677400 -12.1878000 255 255 0
4.0137300 1.2434700 -12.1793000 255 255 0
4.0097300 1.6505300 -12.2541000 255 255 0
4.0114100 1.6225900 -12.2597000 255 255 0
4.0039700 1.5812200 -12.2257000 255 255 0
3.9995000 1.3752700 -12.1618000 255 255 0
4.0161200 1.2167000 -12.1782000 255 255 0
4.0195900 1.1889600 -12.1800000 255 255 0
4.0247900 1.1596700 -12.1860000 255 255 0
4.0320200 1.1285200 -12.1972000 255 255 0
4.0392900 1.0972500 -12.2085000 255 255 0
4.0143800 1.6122800 -12.2529000 255 255 0
4.0432100 1.0688500 -12.2112000 255 255 0
4.0764900 1.0141800 -12.2883000 255 255 0
4.0964200 0.9710960 -12.3315000 255 255 0
4.1008100 0.9418050 -12.3353000 255 255 0
4.0028500 1.3929100 -12.1605000 255 255 0
4.1094100 0.9086150 -12.3497000 255 255 0
4.1114000 0.8813880 -12.3473000 255 255 0
4.0036600 1.4429500 -12.1613000 255 255 0
4.0033900 1.4180000 -12.1613000 255 255 0
4.0071900 1.4696900 -12.1700000 255 255 0
4.0309700 1.7020200 -12.2800000 255 255 0
4.0096700 1.4959000 -12.1760000 255 255 0
4.0213700 1.2863000 -12.1600000 255 255 0
4.0156300 1.5489900 -12.1905000 255 255 0
4.0089600 1.5203600 -12.1734000 255 255 0
4.0315000 1.6812500 -12.2621000 255 255 0
4.0175800 1.3355100 -12.1433000 255 255 0
4.0178500 1.3107100 -12.1370000 255 255 0
4.0279900 1.2776600 -12.1556000 255 255 0
4.0321700 1.2494900 -12.1590000 255 255 0
4.0397100 1.2184000 -12.1710000 255 255 0
4.0291700 1.5816400 -12.2259000 255 255 0
4.0405700 1.1929300 -12.1660000 255 255 0
4.0481500 1.1616500 -12.1780000 255 255 0
4.0574600 1.1287700 -12.1943000 255 255 0
4.0619600 1.0999600 -12.1985000 255 255 0
4.0669700 1.0706500 -12.2039000 255 255 0
4.0420200 1.6391500 -12.2610000 255 255 0
4.0400400 1.6129300 -12.2542000 255 255 0
4.0278700 1.3933200 -12.1607000 255 255 0
4.0225700 1.3657800 -12.1474000 255 255 0
4.0694400 1.0435200 -12.2029000 255 255 0
4.1177300 0.9754230 -12.3171000 255 255 0
4.1221500 0.9461740 -12.3208000 255 255 0
4.1276300 0.9158960 -12.3273000 255 255 0
4.1275200 0.8906480 -12.3196000 255 255 0
4.0319400 1.4202800 -12.1709000 255 255 0
4.0288400 1.4434400 -12.1619000 255 255 0
4.0356300 1.3358100 -12.1551000 255 255 0
4.0333400 1.4955400 -12.1725000 255 255 0
4.0325300 1.4702600 -12.1710000 255 255 0
4.0299400 1.5184900 -12.1628000 255 255 0
4.0441200 1.2968900 -12.1500000 255 255 0
4.1750500 1.6266800 -12.5799000 255 255 0
4.0380000 1.5478600 -12.1835000 255 255 0
4.1327600 0.9498890 -12.3057000 255 255 0
4.0516100 1.5804900 -12.2188000 255 255 0
4.0518700 1.2790000 -12.1493000 255 255 0
4.0591000 1.2483100 -12.1604000 255 255 0
4.0652100 1.2184800 -12.1686000 255 255 0
4.0596700 1.1984600 -12.1475000 255 255 0
4.1360800 0.9210190 -12.3024000 255 255 0
4.1718500 1.6308600 -12.5519000 255 255 0
4.0710400 1.6545500 -12.2812000 255 255 0
4.0583900 1.6093700 -12.2361000 255 255 0
4.0708200 1.5948500 -12.2616000 255 255 0
4.0475600 1.3661800 -12.1476000 255 255 0
4.0708100 1.1642100 -12.1683000 255 255 0
4.0827200 1.1291700 -12.1910000 255 255 0
4.0851900 1.1021600 -12.1899000 255 255 0
4.0902200 1.0728700 -12.1953000 255 255 0
4.0952700 1.0435000 -12.2007000 255 255 0
4.0528900 1.3937200 -12.1610000 255 255 0
4.1285200 0.9890380 -12.2765000 255 255 0
4.1261200 0.9643500 -12.2615000 255 255 0
4.1423800 0.9514720 -12.3038000 255 255 0
4.1505900 0.8934860 -12.3096000 255 255 0
4.1533000 0.8656760 -12.3089000 255 255 0
4.0817100 1.6122400 -12.2802000 255 255 0
4.0574300 1.4457400 -12.1715000 255 255 0
4.0571500 1.4207600 -12.1715000 255 255 0
4.0737300 1.6094700 -12.2480000 255 255 0
4.0599500 1.4719400 -12.1775000 255 255 0
4.0633900 1.3350800 -12.1536000 255 255 0
4.1388000 0.9156570 -12.2695000 255 255 0
4.0617000 1.4977500 -12.1814000 255 255 0
4.1408900 0.8881360 -12.2575000 255 255 0
4.0732000 1.5908700 -12.2282000 255 255 0
4.0632300 1.5234700 -12.1847000 255 255 0
4.0719500 1.2961600 -12.1485000 255 255 0
4.0769200 1.5560100 -12.2201000 255 255 0
4.1581600 0.9500430 -12.3023000 255 255 0
4.1595200 0.9240420 -12.2947000 255 255 0
4.0754000 1.2684100 -12.1348000 255 255 0
4.0833000 1.2494300 -12.1548000 255 255 0
4.0857400 1.2227100 -12.1538000 255 255 0
4.0837700 1.1996800 -12.1417000 255 255 0
4.0849600 1.1739900 -12.1375000 255 255 0
4.1619300 0.8964770 -12.2893000 255 255 0
4.1643600 0.8688560 -12.2840000 255 255 0
4.0779200 1.3941300 -12.1612000 255 255 0
4.0742000 1.3674300 -12.1521000 255 255 0
4.0960200 1.1398000 -12.1579000 255 255 0
4.1095500 1.1033400 -12.1843000 255 255 0
4.1169800 1.0720200 -12.1956000 255 255 0
4.1209900 1.0435800 -12.1983000 255 255 0
4.1340100 1.0071400 -12.2233000 255 255 0
4.1657400 0.8427200 -12.2763000 255 255 0
4.0823900 1.4212700 -12.1722000 255 255 0
4.0853900 1.4476900 -12.1794000 255 255 0
4.1672600 0.9364550 -12.2849000 255 255 0
4.0876600 1.4737700 -12.1846000 255 255 0
4.1685400 0.9106460 -12.2713000 255 255 0
4.1085700 1.5929800 -12.2589000 255 255 0
4.0925000 1.5261700 -12.1958000 255 255 0
4.0896500 1.4997100 -12.1891000 255 255 0
4.0911500 1.3343500 -12.1521000 255 255 0
4.1725100 0.8794210 -12.2627000 255 255 0
4.1075700 1.5753800 -12.2382000 255 255 0
4.1049100 1.5579800 -12.2276000 255 255 0
4.1720700 0.9665660 -12.2740000 255 255 0
4.1049500 1.2841000 -12.1554000 255 255 0
4.1825800 0.9275650 -12.2862000 255 255 0
4.1759700 0.8491350 -12.2532000 255 255 0
4.1996500 1.5250800 -12.4661000 255 255 0
4.1086100 1.5534400 -12.2210000 255 255 0
4.1025400 1.3695200 -12.1610000 255 255 0
4.1048600 1.2527100 -12.1428000 255 255 0
4.1074400 1.2259200 -12.1420000 255 255 0
4.1078600 1.2009100 -12.1359000 255 255 0
4.1107600 1.1737800 -12.1359000 255 255 0
4.1220600 1.1394600 -12.1567000 255 255 0
4.1839600 0.9015460 -12.2785000 255 255 0
4.1864100 0.8739560 -12.2731000 255 255 0
4.1074000 1.3968200 -12.1730000 255 255 0
4.1053400 1.2631300 -12.1367000 255 255 0
4.1367200 1.1021100 -12.1857000 255 255 0
4.1445400 1.0704800 -12.1978000 255 255 0
4.1611300 1.0311200 -12.2314000 255 255 0
4.1750400 0.9938950 -12.2584000 255 255 0
4.1888600 0.8463110 -12.2677000 255 255 0
4.1137400 1.5227700 -12.2104000 255 255 0
4.1093100 1.4226400 -12.1772000 255 255 0
4.1153700 1.4755700 -12.1916000 255 255 0
4.1128900 1.4493700 -12.1859000 255 255 0
4.1154300 1.3611900 -12.1642000 255 255 0
4.1817400 0.9616740 -12.2581000 255 255 0
4.2049000 0.8157220 -12.2876000 255 255 0
4.1137700 1.5029300 -12.1914000 255 255 0
4.1576200 1.0467400 -12.1951000 255 255 0
4.1933900 0.9154110 -12.2639000 255 255 0
4.1189200 1.3336200 -12.1506000 255 255 0
4.1461900 1.0392400 -12.1598000 255 255 0
4.1973900 0.8842150 -12.2553000 255 255 0
4.1432400 1.5573500 -12.2503000 255 255 0
4.1964200 0.9441540 -12.2578000 255 255 0
4.2070100 0.9050850 -12.2700000 255 255 0
4.2014000 0.8529270 -12.2467000 255 255 0
4.1326600 1.3973200 -12.1737000 255 255 0
4.1285400 1.3704100 -12.1637000 255 255 0
4.1432800 1.2606300 -12.1709000 255 255 0
4.1273600 1.2551900 -12.1332000 255 255 0
4.1299600 1.2284200 -12.1324000 255 255 0
4.1332400 1.2010400 -12.1333000 255 255 0
4.1365400 1.1736000 -12.1343000 255 255 0
4.1446500 1.1420400 -12.1470000 255 255 0
4.2084100 0.8790460 -12.2623000 255 255 0
4.2108800 0.8514330 -12.2569000 255 255 0
4.1446500 1.5346300 -12.2335000 255 255 0
4.1362600 1.4240200 -12.1823000 255 255 0
4.1524600 1.1106300 -12.1590000 255 255 0
4.1672500 1.0731200 -12.1880000 255 255 0
4.1668800 1.0442200 -12.1773000 255 255 0
4.1839200 1.0338100 -12.2216000 255 255 0
4.1893200 0.9790380 -12.2202000 255 255 0
4.2150700 0.8212900 -12.2552000 255 255 0
4.1398700 1.4507700 -12.1909000 255 255 0
4.1374000 1.2532900 -12.1419000 255 255 0
4.2273000 0.7794180 -12.2707000 255 255 0
4.1515800 1.5002200 -12.2258000 255 255 0
4.2307200 0.7907400 -12.2769000 255 255 0
4.1430000 1.4985700 -12.1927000 255 255 0
4.1713700 1.0391500 -12.1569000 255 255 0
4.1588400 1.3267700 -12.1881000 255 255 0
4.2225300 0.9116230 -12.2645000 255 255 0
4.1551200 1.4530700 -12.1933000 255 255 0
4.2247100 0.8840940 -12.2525000 255 255 0
4.1578700 1.3729600 -12.1749000 255 255 0
4.1623900 1.2990600 -12.1745000 255 255 0
4.2207800 0.9217390 -12.2417000 255 255 0
4.2247200 0.8608210 -12.2364000 255 255 0
4.1596100 1.3986800 -12.1787000 255 255 0
4.1568100 1.2273200 -12.1335000 255 255 0
4.1597400 1.2002400 -12.1335000 255 255 0
4.1626900 1.1731100 -12.1335000 255 255 0
4.1679000 1.1440300 -12.1390000 255 255 0
4.1733300 1.1147100 -12.1450000 255 255 0
4.2318000 0.8820920 -12.2546000 255 255 0
4.2311600 0.8589960 -12.2425000 255 255 0
4.2261800 0.8346400 -12.2230000 255 255 0
4.1632500 1.4253900 -12.1874000 255 255 0
4.1712300 1.2599000 -12.1693000 255 255 0
4.1787700 1.0852900 -12.1511000 255 255 0
4.1926200 1.0485800 -12.1775000 255 255 0
4.1953100 1.0213400 -12.1768000 255 255 0
4.2085800 0.9848520 -12.2018000 255 255 0
4.2113000 0.9574450 -12.2010000 255 255 0
4.2353700 0.8289060 -12.2407000 255 255 0
4.2396000 0.7987290 -12.2390000 255 255 0
4.1815300 1.5142900 -12.2473000 255 255 0
4.1668800 1.4521600 -12.1960000 255 255 0
4.1665200 1.2499500 -12.1423000 255 255 0
4.2282500 0.9174330 -12.2348000 255 255 0
4.2566200 0.7910320 -12.2739000 255 255 0
4.1808900 1.4958500 -12.2271000 255 255 0
4.1713900 1.4960300 -12.1926000 255 255 0
4.1744200 1.3522700 -12.1668000 255 255 0
4.1725900 1.3682000 -12.1487000 255 255 0
4.1826200 1.3483700 -12.1750000 255 255 0
4.2548600 0.8784480 -12.2548000 255 255 0
4.1837600 1.3986100 -12.1765000 255 255 0
4.1867600 1.3058700 -12.1673000 255 255 0
4.1825900 1.2271100 -12.1319000 255 255 0
4.2451500 0.8993210 -12.2256000 255 255 0
4.2548800 0.8551580 -12.2387000 255 255 0
4.2039900 1.5439800 -12.2566000 255 255 0
4.1880900 1.4256700 -12.1869000 255 255 0
4.1849700 1.2005100 -12.1305000 255 255 0
4.1873500 1.1738700 -12.1291000 255 255 0
4.1882500 1.1484300 -12.1241000 255 255 0
4.1931000 1.1196500 -12.1286000 255 255 0
4.2006600 1.0885100 -12.1397000 255 255 0
4.2467000 0.8731840 -12.2181000 255 255 0
4.2520900 0.8374070 -12.2175000 255 255 0
4.1913200 1.4522000 -12.1944000 255 255 0
4.1938800 1.2705400 -12.1593000 255 255 0
4.2047500 1.0602300 -12.1423000 255 255 0
4.2144600 1.0270500 -12.1585000 255 255 0
4.2224700 0.9952390 -12.1706000 255 255 0
4.2234300 0.9694630 -12.1656000 255 255 0
4.2518100 0.9195970 -12.2267000 255 255 0
4.2582900 0.8326700 -12.2320000 255 255 0
4.2649000 0.7991450 -12.2352000 255 255 0
4.2119200 1.5077400 -12.2503000 255 255 0
4.3365400 1.4796400 -12.5704000 255 255 0
4.1932500 1.2518200 -12.1388000 255 255 0
4.2172500 1.4768400 -12.2398000 255 255 0
4.2085500 1.4752300 -12.2065000 255 255 0
4.1977400 1.3439000 -12.1500000 255 255 0
4.2028900 1.2109500 -12.1347000 255 255 0
4.1891100 1.3643900 -12.1274000 255 255 0
4.2103600 1.4516300 -12.1903000 255 255 0
4.2094300 1.3993000 -12.1782000 255 255 0
4.2117900 1.3111600 -12.1612000 255 255 0
4.2100800 1.1752500 -12.1266000 255 255 0
4.2695300 0.8769000 -12.2095000 255 255 0
4.2161600 1.4275700 -12.1946000 255 255 0
4.2141200 1.1481900 -12.1226000 255 255 0
4.2184200 1.1199000 -12.1257000 255 255 0
4.2225100 1.0917200 -12.1283000 255 255 0
4.2290800 1.0613800 -12.1369000 255 255 0
4.2806600 0.8581210 -12.2330000 255 255 0
4.2879300 0.8268470 -12.2375000 255 255 0
4.2111600 1.2924900 -12.1408000 255 255 0
4.2378000 1.0291300 -12.1505000 255 255 0
4.2412400 1.0013000 -12.1515000 255 255 0
4.2461000 0.9721920 -12.1558000 255 255 0
4.2493600 0.9444220 -12.1563000 255 255 0
4.2623200 0.9080800 -12.1800000 255 255 0
4.2763000 0.8434610 -12.2090000 255 255 0
4.3003900 0.7850500 -12.2529000 255 255 0
4.3024900 0.7716220 -12.2463000 255 255 0
4.3071700 0.7420600 -12.2500000 255 255 0
4.2465900 1.4924100 -12.2602000 255 255 0
4.2183300 1.2571500 -12.1328000 255 255 0
4.2184900 1.3422200 -12.1394000 255 255 0
4.2543500 1.4565200 -12.2534000 255 255 0
4.2226400 1.3690100 -12.1491000 255 255 0
4.2280300 1.2163300 -12.1287000 255 255 0
4.2449800 1.4561600 -12.2191000 255 255 0
4.2334600 1.3991800 -12.1757000 255 255 0
4.2284500 1.3611100 -12.1571000 255 255 0
4.2311200 1.3284500 -12.1462000 255 255 0
4.2306300 1.1906400 -12.1132000 255 255 0
4.2755600 0.9041590 -12.1656000 255 255 0
4.2395000 1.4477600 -12.1912000 255 255 0
4.2384800 1.1491900 -12.1175000 255 255 0
4.2394100 1.1237400 -12.1125000 255 255 0
4.2443300 1.0949200 -12.1170000 255 255 0
4.2463400 1.0684900 -12.1145000 255 255 0
4.2526000 1.0384200 -12.1222000 255 255 0
4.2939100 0.8544760 -12.1933000 255 255 0
4.2408500 1.4251600 -12.1741000 255 255 0
4.2306500 1.3095000 -12.1261000 255 255 0
4.2375300 1.1556600 -12.1045000 255 255 0
4.2624300 1.0052200 -12.1383000 255 255 0
4.2672200 0.9762320 -12.1424000 255 255 0
4.2715100 0.9476130 -12.1453000 255 255 0
4.2742800 0.9202630 -12.1446000 255 255 0
4.2998400 0.8507350 -12.1993000 255 255 0
4.3124300 0.8043140 -12.2213000 255 255 0
4.3126900 0.7799080 -12.2110000 255 255 0
4.3799600 1.4292400 -12.5393000 255 255 0
4.3043200 0.8188100 -12.1912000 255 255 0
4.3246100 0.7499870 -12.2269000 255 255 0
4.3274800 0.7220900 -12.2262000 255 255 0
4.2391200 1.2715700 -12.1200000 255 255 0
4.3046400 1.4491300 -12.3265000 255 255 0
4.2303300 1.2702800 -12.0867000 255 255 0
4.2509500 1.1065600 -12.1060000 255 255 0
4.3095500 0.7853350 -12.1844000 255 255 0
4.4240900 1.4236800 -12.6283000 255 255 0
4.4134000 1.4269200 -12.5942000 255 255 0
4.2515100 1.3713000 -12.1590000 255 255 0
4.2506400 1.3650000 -12.1510000 255 255 0
4.2827600 1.4544000 -12.2530000 255 255 0
4.2621000 1.4013400 -12.1848000 255 255 0
4.2865500 0.9241800 -12.1326000 255 255 0
4.2786800 1.4430100 -12.2272000 255 255 0
4.2525100 1.3412000 -12.1346000 255 255 0
4.2554200 1.1968000 -12.1066000 255 255 0
4.0113500 0.8858740 -11.3919000 255 255 0
4.2648500 1.0991600 -12.1027000 255 255 0
4.2641700 1.0750200 -12.0938000 255 255 0
4.2751200 1.0410800 -12.1125000 255 255 0
4.2903700 1.0033500 -12.1414000 255 255 0
4.3200800 0.8534510 -12.1917000 255 255 0
4.2764100 1.4278800 -12.2043000 255 255 0
4.2579500 1.3098400 -12.1237000 255 255 0
4.2645200 1.1572300 -12.1013000 255 255 0
4.2884900 0.9800880 -12.1296000 255 255 0
4.2905500 0.9534470 -12.1271000 255 255 0
4.2954900 0.9242780 -12.1314000 255 255 0
4.3265100 0.8518460 -12.1953000 255 255 0
4.3336100 0.8104990 -12.2090000 255 255 0
4.3349000 0.7846760 -12.2008000 255 255 0
4.2789400 1.4028200 -12.1890000 255 255 0
4.3285900 0.8246700 -12.1829000 255 255 0
4.3403000 0.7529850 -12.2011000 255 255 0
4.3393400 0.7350280 -12.1903000 255 255 0
4.3431000 0.7249070 -12.1961000 255 255 0
4.2705900 1.2632600 -12.1241000 255 255 0
4.2736800 1.1174700 -12.0959000 255 255 0
4.3338600 0.7912320 -12.1760000 255 255 0
4.2944400 1.3507700 -12.1941000 255 255 0
4.3359500 0.7639240 -12.1635000 255 255 0
4.4243300 1.3824300 -12.5367000 255 255 0
4.2855600 1.3493500 -12.1607000 255 255 0
4.2827900 1.2174600 -12.1237000 255 255 0
4.3033900 0.9488090 -12.1029000 255 255 0
4.3258900 0.8808200 -12.1480000 255 255 0
4.3111100 1.4326100 -12.2331000 255 255 0
4.2867400 1.3269900 -12.1432000 255 255 0
4.2852300 1.1922300 -12.1079000 255 255 0
4.2889100 1.1004300 -12.0969000 255 255 0
4.2902300 1.0746400 -12.0928000 255 255 0
4.3012000 1.0407400 -12.1113000 255 255 0
4.3219600 0.9984300 -12.1529000 255 255 0
4.3081800 0.9852450 -12.1131000 255 255 0
4.3444800 0.8310220 -12.1756000 255 255 0
4.3083300 1.4184900 -12.2094000 255 255 0
4.3149300 0.9546390 -12.1216000 255 255 0
4.3195400 0.9257930 -12.1251000 255 255 0
4.3598100 0.7855750 -12.1964000 255 255 0
4.3580300 0.7640850 -12.1818000 255 255 0
4.2862900 1.3080400 -12.1230000 255 255 0
4.2907800 1.1603400 -12.0969000 255 255 0
4.3596800 0.7377290 -12.1743000 255 255 0
4.3632200 0.7118240 -12.1754000 255 255 0
4.3095200 1.3962300 -12.1920000 255 255 0
4.3528200 0.8305190 -12.1746000 255 255 0
4.3590600 0.7695820 -12.1745000 255 255 0
4.2985000 1.2625300 -12.1226000 255 255 0
4.2927200 1.1360900 -12.0803000 255 255 0
4.3581300 0.7971190 -12.1677000 255 255 0
4.3150500 1.3649900 -12.1812000 255 255 0
4.3634600 0.7636040 -12.1609000 255 255 0
4.3104000 1.2175400 -12.1215000 255 255 0
4.4585500 1.3668000 -12.5344000 255 255 0
4.3162500 1.3426400 -12.1637000 255 255 0
4.3125900 1.1513000 -12.1048000 255 255 0
4.3138200 1.1256400 -12.1005000 255 255 0
4.3519500 0.8798000 -12.1464000 255 255 0
4.3141700 1.1895700 -12.1078000 255 255 0
4.3150500 1.0999600 -12.0961000 255 255 0
4.3162800 1.0742500 -12.0917000 255 255 0
4.3272700 1.0403900 -12.1101000 255 255 0
4.3591000 0.9889010 -12.1772000 255 255 0
4.3337700 0.9853540 -12.1106000 255 255 0
4.3335100 0.9607560 -12.1027000 255 255 0
4.3740300 0.8013950 -12.1700000 255 255 0
4.3497600 1.4096600 -12.2487000 255 255 0
4.3225300 1.3097300 -12.1540000 255 255 0
4.3330700 0.9363070 -12.0943000 255 255 0
4.3449400 0.9012260 -12.1146000 255 255 0
4.4017600 0.7867260 -12.2378000 255 255 0
4.0461800 0.8782290 -11.3335000 255 255 0
4.3447900 1.3999700 -12.2215000 255 255 0
4.3152100 1.1673000 -12.0898000 255 255 0
4.3841600 0.7164480 -12.1612000 255 255 0
4.3226500 1.2895600 -12.1347000 255 255 0
4.3807700 0.8291670 -12.1729000 255 255 0
4.3880000 0.7688060 -12.1729000 255 255 0
4.3409100 1.3880700 -12.1961000 255 255 0
4.3861300 0.7957630 -12.1660000 255 255 0
4.4898700 1.3656800 -12.5609000 255 255 0
4.3300500 1.2542100 -12.1267000 255 255 0
4.3457700 1.3582900 -12.1842000 255 255 0
4.3575900 0.9069140 -12.1031000 255 255 0
4.4035500 0.7142840 -12.1764000 255 255 0
4.3384000 1.2168000 -12.1200000 255 255 0
4.3395900 1.1501400 -12.1060000 255 255 0
4.3408300 1.1244700 -12.1016000 255 255 0
4.3420800 1.0987800 -12.0972000 255 255 0
4.3539200 1.3216500 -12.1774000 255 255 0
4.3423400 1.0738700 -12.0906000 255 255 0
4.3715400 1.0249800 -12.1512000 255 255 0
4.3590800 1.0105100 -12.1148000 255 255 0
4.3571800 0.9872940 -12.1031000 255 255 0
4.3574700 0.9622490 -12.0964000 255 255 0
4.4176600 0.8001870 -12.2148000 255 255 0
4.3950700 0.8075600 -12.1579000 255 255 0
4.3540600 1.3014700 -12.1581000 255 255 0
4.3422000 1.1888300 -12.1062000 255 255 0
4.3588400 0.9362640 -12.0922000 255 255 0
4.3711600 0.9008710 -12.1134000 255 255 0
4.5288200 1.3423800 -12.6155000 255 255 0
4.3410600 1.1711700 -12.0849000 255 255 0
4.4852700 1.3680800 -12.5035000 255 255 0
4.3777200 1.3888300 -12.2280000 255 255 0
4.5012000 1.3262900 -12.5318000 255 255 0
4.3560200 1.2774900 -12.1417000 255 255 0
4.4087300 0.8278150 -12.1712000 255 255 0
4.3760200 1.3724500 -12.2059000 255 255 0
4.4084600 0.8052520 -12.1544000 255 255 0
4.4111700 0.7804390 -12.1625000 255 255 0
4.4829800 1.3692900 -12.4748000 255 255 0
4.3598300 1.2496700 -12.1280000 255 255 0
4.4094400 0.7634170 -12.1396000 255 255 0
4.3748500 1.3550000 -12.1847000 255 255 0
4.3869500 0.9012270 -12.1084000 255 255 0
4.4119700 0.7754210 -12.1443000 255 255 0
4.3664100 1.2160600 -12.1185000 255 255 0
4.3666100 1.1489800 -12.1072000 255 255 0
4.3678600 1.1233000 -12.1028000 255 255 0
4.3691200 1.0976000 -12.0984000 255 255 0
4.3766100 1.0667800 -12.1084000 255 255 0
4.4023100 0.8564520 -12.1287000 255 255 0
4.3830900 1.0367000 -12.1161000 255 255 0
4.3932600 1.0034800 -12.1322000 255 255 0
4.3860400 0.9846570 -12.1082000 255 255 0
4.3848400 0.9608460 -12.0980000 255 255 0
4.3915700 0.9303300 -12.1062000 255 255 0
4.4039800 0.8303950 -12.1212000 255 255 0
4.4132500 0.7937660 -12.1291000 255 255 0
4.4326300 0.7125770 -12.1639000 255 255 0
4.3873400 1.3096300 -12.1844000 255 255 0
4.3682700 1.1921900 -12.1017000 255 255 0
4.3973800 0.9005150 -12.1121000 255 255 0
4.4125200 0.7709440 -12.1167000 255 255 0
4.1147600 0.8852680 -11.3743000 255 255 0
4.0954700 0.8502160 -11.3190000 255 255 0
4.3856400 1.2931900 -12.1623000 255 255 0
4.4194100 0.7374580 -12.1197000 255 255 0
4.4477200 0.6602290 -12.1736000 255 255 0
4.4503300 0.6543290 -12.1813000 255 255 0
4.3773300 1.2903500 -12.1300000 255 255 0
4.3646900 1.1796400 -12.0766000 255 255 0
4.4215400 0.8551640 -12.1431000 255 255 0
4.4561600 0.6620090 -12.1827000 255 255 0
4.4129600 1.3731900 -12.2379000 255 255 0
4.5315500 1.3227500 -12.5295000 255 255 0
4.4231700 0.8291000 -12.1297000 255 255 0
4.5720200 1.2925200 -12.6172000 255 255 0
4.3785800 1.2678900 -12.1124000 255 255 0
4.4172500 0.8173820 -12.1032000 255 255 0
4.4128700 0.8766390 -12.0959000 255 255 0
4.5303100 1.3207900 -12.5007000 255 255 0
4.4169700 1.3253400 -12.2050000 255 255 0
4.3842600 1.2362800 -12.1015000 255 255 0
4.3936500 1.1478100 -12.1084000 255 255 0
4.3932000 1.1235100 -12.1000000 255 255 0
4.3942800 1.0979600 -12.0952000 255 255 0
4.3944700 1.0731200 -12.0883000 255 255 0
4.4231600 0.8388640 -12.1057000 255 255 0
4.4190200 1.0283200 -12.1374000 255 255 0
4.4113400 1.0098200 -12.1124000 255 255 0
4.4112700 0.9850720 -12.1048000 255 255 0
4.4067900 0.9640050 -12.0872000 255 255 0
4.4096600 0.9367970 -12.0864000 255 255 0
4.4169600 0.9057950 -12.0957000 255 255 0
4.4300400 0.8056580 -12.1086000 255 255 0
4.4607800 0.7112110 -12.1622000 255 255 0
