-5.08021 -0.113494 -11.9717
-5.1643 -0.113052 -11.8805
-5.26778 -0.113052 -11.8349
-5.37245 -0.113085 -11.792
-5.47516 -0.113085 -11.7447
-5.59857 -0.113514 -11.7407
-4.87981 0 -12.0779
-5.00216 0 -12.0763
-5.70042 0 -11.6876
-4.82564 0.114935 -12.2544
-5.699 0.113476 -11.6877
-4.83007 0.230283 -12.277
-5.71076 0.227581 -11.721
-4.66152 0.341463 -12.1783
-5.7119 0.341843 -11.7386
-4.63669 0.453817 -12.1403
-5.71028 0.456416 -11.7567
-4.62737 0.567677 -12.1506
-5.73073 0.573784 -11.8265
-4.40214 0.665575 -11.9126
-5.58551 0.685266 -11.8227
-2.74399 0.735574 -11.7093
-2.84626 0.735574 -11.6849
-2.95853 0.738123 -11.7
-3.07695 0.74204 -11.7356
-3.20165 0.747225 -11.7901
-4.43291 0.785127 -12.047
-5.45536 0.798178 -11.8552
-2.50296 0.835577 -11.6842
-2.60507 0.835577 -11.6619
-3.31073 0.86091 -11.8581
-4.21138 0.877486 -11.8209
-5.32586 0.911335 -11.8948
-2.46694 0.935198 -11.6239
-3.38355 0.96642 -11.8042
-3.56471 0.988028 -12.0374
-3.78605 1.01929 -12.3856
-4.11807 1.0213 -12.3061
-4.1961 1.01416 -12.1838
-5.28051 1.02099 -11.8496
-2.33472 1.03716 -11.6226
-3.87258 1.13417 -12.3717
-4.00707 1.14165 -12.4187
-5.14276 1.13272 -11.8819
-2.30542 1.14057 -11.6188
-5.04402 1.22895 -11.7242
-2.27854 1.24675 -11.6411
-5.03023 1.34532 -11.77
-2.14784 1.35435 -11.6913
-5.04085 1.47045 -11.8808
-2.11552 1.46192 -11.7169
-4.81221 1.5555 -11.719
-2.08808 1.57591 -11.7867
-4.77115 1.66602 -11.7208
-2.06584 1.6982 -11.9054
-4.71781 1.77289 -11.6993
-2.02353 1.80806 -11.9276
-4.6584 1.87782 -11.6693
-2.08106 1.91599 -11.9167
-4.59844 1.9829 -11.6445
-2.14904 2.03656 -11.9788
-4.53335 2.08619 -11.6131
-2.21148 2.15525 -12.0213
-2.30119 2.13971 -11.9147
-4.59958 2.20378 -11.6211
-2.35001 2.24774 -11.8979
-2.48 2.27016 -11.995
-4.52455 2.30407 -11.579
-2.50548 2.35952 -11.8773
-4.4898 2.42644 -11.6476
-2.56953 2.48788 -11.9553
-2.69587 2.50644 -12.021
-4.38964 2.51449 -11.5533
-2.71215 2.59265 -11.8921
-4.32269 2.62182 -11.5524
-2.77344 2.72455 -11.9726
-2.85445 2.70006 -11.84
-2.96996 2.70899 -11.8531
-4.27107 2.74058 -11.6007
-3.00286 2.81603 -11.8222
-3.13065 2.83599 -11.8784
-4.18213 2.83707 -11.5552
-3.14137 2.92547 -11.7736
-4.00266 2.94371 -11.5897
-3.20044 3.06277 -11.8599
-3.28763 3.04485 -11.7614
-3.40955 3.05945 -11.7876
-3.50919 3.05403 -11.7356
-3.60109 3.04262 -11.6599
-3.71192 3.04764 -11.6462
-3.82481 3.05427 -11.6376
-3.92249 3.04895 -11.5825
