-3.1692 -3.6711 -11.5818
-3.26675 -3.66212 -11.5242
-3.369 -3.65911 -11.4845
-3.44611 -3.63009 -11.3624
-3.53919 -3.61939 -11.2971
-3.62938 -3.60672 -11.2249
-3.74431 -3.61895 -11.2292
-2.98971 -3.61734 -11.8403
-3.08906 -3.60766 -11.781
-3.18838 -3.59888 -11.7238
-3.73563 -3.42235 -10.9331
-2.93488 -3.88461 -13.2255
-2.96996 -3.7767 -12.8317
-3.03746 -3.7169 -12.6015
-3.06254 -3.61171 -12.2175
-4.04256 -3.42309 -11.2324
-3.04429 -3.77491 -13.2671
-4.15045 -3.33536 -11.2881
-2.78304 -3.36517 -12.2467
-4.00442 -3.12971 -10.9724
-4.74888 -3.53702 -12.3165
-2.87159 -3.25545 -12.256
-2.72921 -2.97954 -11.1931
-4.10084 -3.04014 -11.0169
-5.19309 -3.5904 -12.8752
-2.49546 -2.86895 -11.2329
-2.60429 -2.87768 -11.2441
-4.05957 -2.92366 -11.001
-5.28331 -3.46911 -12.8717
-2.37816 -2.7794 -11.3302
-2.46689 -2.76499 -11.2497
-4.15588 -2.83634 -11.0591
-5.4254 -3.45641 -13.3356
-2.339 -2.66601 -11.3084
-4.94194 -3.0524 -12.2631
-2.20571 -2.56415 -11.3539
-2.30323 -2.55984 -11.3147
-4.91413 -2.94014 -12.3181
-2.17344 -2.46485 -11.3907
-4.97053 -2.81446 -12.2726
-2.11839 -2.34313 -11.3204
-4.93495 -2.7007 -12.3229
-2.08139 -2.24469 -11.3588
-4.2997 -2.32371 -11.1544
-4.99333 -2.57998 -12.2978
-2.03529 -2.13931 -11.3618
-4.23605 -2.20737 -11.1311
-5.05839 -2.46436 -12.2967
-1.99035 -2.038 -11.3854
-4.30871 -2.11177 -11.1746
-5.14116 -2.35805 -12.3455
-2.04252 -1.93562 -11.385
-4.37225 -2.01206 -11.2005
-5.20673 -2.24428 -12.3593
-1.98789 -1.83022 -11.3833
-4.43397 -1.91198 -11.228
-5.2659 -2.12862 -12.3649
-2.0368 -1.73002 -11.3952
-3.59053 -1.81344 -11.5906
-4.50486 -1.81593 -11.2847
-5.29735 -2.00327 -12.313
-2.08122 -1.62821 -11.3969
-3.39282 -1.68805 -11.522
-3.52469 -1.70276 -11.5918
-3.75367 -1.71429 -11.6059
-4.56226 -1.71444 -11.3136
-5.37066 -1.89469 -12.3654
-2.12572 -1.52845 -11.4134
-3.31481 -1.57389 -11.4861
-3.79345 -1.60623 -11.5958
-4.60785 -1.609 -11.3197
-5.43114 -1.78155 -12.3945
-2.16258 -1.42511 -11.4033
-2.26276 -1.42511 -11.3839
-2.36514 -1.42654 -11.375
-3.02966 -1.45931 -11.4925
-3.13085 -1.45943 -11.4664
-3.2583 -1.47152 -11.5331
-3.83448 -1.49987 -11.598
-4.65244 -1.50386 -11.3299
-5.6195 -1.67413 -12.4228
-2.51433 -1.33166 -11.4142
-2.61448 -1.33166 -11.3917
-2.72064 -1.33471 -11.3943
-2.85232 -1.34971 -11.4977
-2.9532 -1.34971 -11.4722
-3.90949 -1.40661 -11.7103
-4.70287 -1.40092 -11.3608
-5.61856 -1.54366 -12.3286
-3.94514 -1.29894 -11.712
-5.65591 -1.42537 -12.3257
-4.07942 -1.19084 -11.6751
-5.66198 -1.27629 -11.9846
-4.23365 -1.08867 -11.7012
-5.6422 -1.12955 -11.6126
-4.27111 -0.982498 -11.7304
-5.62059 -1.00816 -11.511
-4.28625 -0.871716 -11.7061
-5.65856 -0.898605 -11.5377
-4.32636 -0.766256 -11.7575
-5.65595 -0.783164 -11.4878
-4.44055 -0.6559 -11.701
-5.68711 -0.672943 -11.5124
-4.49281 -0.551171 -11.7973
-5.68524 -0.559173 -11.4761
-4.62636 -0.442703 -11.803
-5.70183 -0.44771 -11.483
-4.61531 -0.330554 -11.7493
-5.58443 -0.334216 -11.4766
-4.62906 -0.220701 -11.7661
-5.47841 -0.222314 -11.4979
-4.72734 -0.110158 -11.7041
-4.81038 -0.109727 -11.6167
-5.14458 -0.110408 -11.5581
-5.23892 -0.110275 -11.4989
-5.38552 -0.111234 -11.5524
-4.94366 0 -11.6465
-5.04511 0 -11.603
