0.8258790 0.2549670 -7.2242880 0 255 0
0.8171720 0.2491060 -7.1962110 0 255 0
0.8116530 0.2478320 -7.1794300 0 255 0
0.8119500 0.2422000 -7.1788920 0 255 0
0.8064300 0.2363150 -7.1629420 0 255 0
0.8120420 0.2365760 -7.1788650 0 255 0
0.8065200 0.2307000 -7.1629160 0 255 0
0.8278810 0.2242930 -7.2304140 0 255 0
0.8067020 0.2194690 -7.1628640 0 255 0
0.8043010 0.2137350 -7.1541330 0 255 0
0.8296500 0.2141610 -7.2355660 0 255 0
0.8043910 0.2081240 -7.1541060 0 255 0
0.8044810 0.2025140 -7.1540800 0 255 0
0.8330700 0.2041970 -7.2453840 0 255 0
0.8016720 0.1968070 -7.1463800 0 255 0
0.8045710 0.1969030 -7.1540530 0 255 0
0.7995470 0.1742990 -7.1375990 0 255 0
0.8341230 0.1629460 -7.2471780 0 255 0
0.7998140 0.1574950 -7.1375180 0 255 0
0.7970120 0.1518320 -7.1298450 0 255 0
0.7971830 0.1462350 -7.1296150 0 255 0
0.7974530 0.1238460 -7.1297080 0 255 0
0.8365650 0.1215730 -7.2537730 0 255 0
0.7975690 0.1126500 -7.1297980 0 255 0
0.8369540 0.0901920 -7.2553040 0 255 0
0.8386800 0.0851330 -7.2602540 0 255 0
0.7927430 0.0622920 -7.1138940 0 255 0
0.7928120 0.0511100 -7.1140890 0 255 0
0.7932070 0.0343500 -7.1136690 0 255 0
0.8388500 0.0274670 -7.2579230 0 255 0
0.7905680 0.0232140 -7.1058340 0 255 0
0.8389070 0.0009210 -7.2593200 0 255 0
0.7884260 -0.0269660 -7.0980500 0 255 0
0.7862680 -0.0770650 -7.0902960 0 255 0
0.7864710 -0.0826290 -7.0899740 0 255 0
0.7866130 -0.0881970 -7.0898000 0 255 0
0.7845000 -0.1326160 -7.0817580 0 255 0
0.7818780 -0.1602960 -7.0744450 0 255 0
0.7818580 -0.1658730 -7.0746610 0 255 0
0.7819580 -0.1714340 -7.0745840 0 255 0
0.7821800 -0.1825530 -7.0743780 0 255 0
0.7823110 -0.1881090 -7.0742260 0 255 0
0.7821160 -0.1937080 -7.0748600 0 255 0
0.7821970 -0.1992710 -7.0748300 0 255 0
0.7776090 -0.2543390 -7.0586370 0 255 0
0.7777710 -0.2598770 -7.0584070 0 255 0
0.7778460 -0.2709930 -7.0585430 0 255 0
0.7775950 -0.2765980 -7.0593050 0 255 0
0.7804470 -0.2824340 -7.0670100 0 255 0
0.7803530 -0.2991570 -7.0677110 0 255 0
0.7807600 -0.3046550 -7.0668830 0 255 0
0.7807140 -0.3102310 -7.0671490 0 255 0
0.7686110 -0.4026250 -7.0270590 0 255 0
0.8250600 0.2550540 -7.2193100 0 255 0
0.8343490 0.2515890 -7.2484970 0 255 0
0.8150300 0.2479500 -7.1860000 0 255 0
0.8289520 0.2451470 -7.2318510 0 255 0
0.8227720 0.2395510 -7.2104120 0 255 0
0.8298190 0.2400700 -7.2341320 0 255 0
0.8289230 0.2333330 -7.2298060 0 255 0
0.8070230 0.2250730 -7.1618700 0 255 0
0.8099370 0.2195750 -7.1697450 0 255 0
0.8072030 0.2138440 -7.1618180 0 255 0
0.8074990 0.2082250 -7.1612820 0 255 0
0.8075890 0.2026110 -7.1612550 0 255 0
0.8076790 0.1969960 -7.1612280 0 255 0
0.8336050 0.1991870 -7.2454440 0 255 0
0.8340220 0.1941350 -7.2455520 0 255 0
0.8328530 0.1808000 -7.2404280 0 255 0
0.8000480 0.1686950 -7.1365590 0 255 0
0.8001360 0.1630950 -7.1365320 0 255 0
0.8361160 0.1580280 -7.2519910 0 255 0
0.8391180 0.1168230 -7.2583730 0 255 0
0.7980090 0.1070590 -7.1289040 0 255 0
0.7956590 0.0790720 -7.1208820 0 255 0
0.7933020 0.0567210 -7.1127080 0 255 0
0.8391320 0.0222640 -7.2580920 0 255 0
0.8396550 0.0171480 -7.2581610 0 255 0
0.8398000 0.0118880 -7.2583860 0 255 0
0.8396750 0.0065260 -7.2587210 0 255 0
0.7887040 -0.0002560 -7.0977520 0 255 0
0.7915330 -0.0158490 -7.1047290 0 255 0
0.7889510 -0.0325140 -7.0969460 0 255 0
0.7867910 -0.0937620 -7.0895400 0 255 0
0.7871210 -0.0993110 -7.0889090 0 255 0
0.7802620 -0.2100740 -7.0653700 0 255 0
0.7804840 -0.2156100 -7.0649980 0 255 0
0.7779530 -0.2264700 -7.0570060 0 255 0
0.7779080 -0.2654190 -7.0582340 0 255 0
0.7835460 -0.2938110 -7.0742960 0 255 0
0.7809160 -0.3157640 -7.0668190 0 255 0
0.7812630 -0.3212690 -7.0661350 0 255 0
0.7786840 -0.3542930 -7.0588570 0 255 0
0.7737810 -0.3812500 -7.0426680 0 255 0
0.7663410 -0.4132180 -7.0185370 0 255 0
0.8343780 0.2632280 -7.2455330 0 255 0
0.8196410 0.2547040 -7.2002700 0 255 0
0.8201930 0.2497320 -7.2003100 0 255 0
0.8184410 0.2443630 -7.1959660 0 255 0
0.8219530 0.2396390 -7.2054330 0 255 0
0.8278270 0.2298040 -7.2248480 0 255 0
0.8295940 0.2196830 -7.2299940 0 255 0
0.8330120 0.2097290 -7.2398030 0 255 0
0.8025850 0.1911880 -7.1443230 0 255 0
0.8028800 0.1855810 -7.1437880 0 255 0
0.8349110 0.1892390 -7.2454670 0 255 0
0.8029690 0.1799770 -7.1437620 0 255 0
0.8347680 0.1787910 -7.2460810 0 255 0
0.8030590 0.1743730 -7.1437350 0 255 0
0.8335120 0.1683310 -7.2418070 0 255 0
0.8352910 0.1581290 -7.2469810 0 255 0
0.8007250 0.1518940 -7.1354650 0 255 0
0.8008870 0.1350940 -7.1356370 0 255 0
0.7984890 0.1014690 -7.1279130 0 255 0
0.7987130 0.0958760 -7.1275490 0 255 0
0.8386820 0.0855400 -7.2548790 0 255 0
0.7961730 0.0734920 -7.1198060 0 255 0
0.8396350 0.0330570 -7.2573180 0 255 0
0.7940610 0.0287980 -7.1117610 0 255 0
0.7914000 0.0176690 -7.1039810 0 255 0
0.7915010 0.0120880 -7.1039150 0 255 0
0.7916050 0.0065060 -7.1038390 0 255 0
0.7917160 0.0009260 -7.1037490 0 255 0
0.7919690 -0.0102330 -7.1034860 0 255 0
0.7893780 -0.0380670 -7.0960810 0 255 0
0.7894890 -0.0436420 -7.0959850 0 255 0
0.7895950 -0.0492180 -7.0959010 0 255 0
0.7874500 -0.1048590 -7.0882790 0 255 0
0.7874500 -0.1104400 -7.0884490 0 255 0
0.7877860 -0.1159860 -7.0878040 0 255 0
0.7851300 -0.1381220 -7.0803970 0 255 0
0.7782800 -0.2319850 -7.0563790 0 255 0
0.7784930 -0.2430760 -7.0561850 0 255 0
0.7783330 -0.2486630 -7.0567330 0 255 0
0.7792320 -0.3597480 -7.0576910 0 255 0
0.7766810 -0.3704720 -7.0497490 0 255 0
0.7715800 -0.3974130 -7.0340850 0 255 0
0.7693040 -0.4080190 -7.0255500 0 255 0
0.8366790 0.2735430 -7.2521780 0 255 0
0.8234230 0.2552250 -7.2093610 0 255 0
0.8251570 0.2502850 -7.2142330 0 255 0
0.8210760 0.2448650 -7.2002190 0 255 0
0.8238970 0.2450750 -7.2096980 0 255 0
0.8156870 0.2423030 -7.1845630 0 255 0
0.8159840 0.2366690 -7.1840240 0 255 0
0.8253010 0.2348590 -7.2149720 0 255 0
0.8153290 0.2289320 -7.1820650 0 255 0
0.8256360 0.2298040 -7.2151040 0 255 0
0.8136290 0.2235670 -7.1776880 0 255 0
0.8287130 0.2249260 -7.2247610 0 255 0
0.8139600 0.2185060 -7.1778090 0 255 0
0.8342530 0.1893900 -7.2404010 0 255 0
0.8032710 0.1687680 -7.1434040 0 255 0
0.8034420 0.1631630 -7.1431740 0 255 0
0.8035310 0.1575600 -7.1431470 0 255 0
0.8011420 0.1462950 -7.1346280 0 255 0
0.8010190 0.1406950 -7.1351210 0 255 0
0.8363110 0.1428140 -7.2474010 0 255 0
0.8010780 0.1294950 -7.1353560 0 255 0
0.8013720 0.1238970 -7.1348220 0 255 0
0.8367250 0.1272620 -7.2480700 0 255 0
0.8012540 0.1182950 -7.1353020 0 255 0
0.7991370 0.0902890 -7.1266940 0 255 0
0.7968470 0.0679200 -7.1183380 0 255 0
0.7970160 0.0455520 -7.1186570 0 255 0
0.7920220 -0.0046430 -7.1031790 0 255 0
0.7922170 -0.0213910 -7.1032370 0 255 0
0.7900210 -0.0547670 -7.0950390 0 255 0
0.7881900 -0.1215230 -7.0869890 0 255 0
0.7856920 -0.1436340 -7.0792020 0 255 0
0.7835120 -0.2046640 -7.0718080 0 255 0
0.7813040 -0.2210600 -7.0631780 0 255 0
0.7786060 -0.2374980 -7.0557530 0 255 0
0.7815130 -0.2878230 -7.0645910 0 255 0
0.7842410 -0.2992630 -7.0727700 0 255 0
0.7820590 -0.3266890 -7.0643670 0 255 0
0.8344320 0.2572390 -7.2427900 0 255 0
0.8229620 0.2502770 -7.2045070 0 255 0
0.8239400 0.2502420 -7.2094170 0 255 0
0.8187200 0.2480580 -7.1918080 0 255 0
0.8188110 0.2424270 -7.1917820 0 255 0
0.8217950 0.2399420 -7.2001930 0 255 0
0.8189030 0.2367970 -7.1917560 0 255 0
0.8172480 0.2343660 -7.1863530 0 255 0
0.8135720 0.2309080 -7.1752560 0 255 0
0.8109570 0.2251620 -7.1670140 0 255 0
0.8278920 0.2250170 -7.2197770 0 255 0
0.8158820 0.2187790 -7.1823540 0 255 0
0.8111380 0.2139290 -7.1669610 0 255 0
0.8177240 0.2138520 -7.1871860 0 255 0
0.8313070 0.2150730 -7.2295740 0 255 0
0.8112280 0.2083120 -7.1669340 0 255 0
0.8113180 0.2026960 -7.1669080 0 255 0
0.8341750 0.2049330 -7.2396060 0 255 0
0.8116140 0.1970750 -7.1663710 0 255 0
0.8348510 0.1947830 -7.2398820 0 255 0
0.8300880 0.1787150 -7.2266370 0 255 0
0.8350370 0.1636390 -7.2414630 0 255 0
0.8354850 0.1429170 -7.2423880 0 255 0
0.8372680 0.1326850 -7.2475690 0 255 0
0.8373970 0.1222570 -7.2480750 0 255 0
0.8017530 0.1127010 -7.1342610 0 255 0
0.8391850 0.1119980 -7.2532650 0 255 0
0.7996270 0.0847040 -7.1256740 0 255 0
0.8404100 0.0808890 -7.2544550 0 255 0
0.7972860 0.0623420 -7.1174450 0 255 0
0.7971770 0.0511520 -7.1180810 0 255 0
0.7974100 0.0399750 -7.1178730 0 255 0
0.8410340 0.0388650 -7.2564610 0 255 0
0.7951330 0.0232610 -7.1093170 0 255 0
0.7928740 -0.0269330 -7.1018090 0 255 0
0.7903390 -0.0603240 -7.0944370 0 255 0
0.7906580 -0.0658800 -7.0938350 0 255 0
0.7887660 -0.1270400 -7.0857590 0 255 0
0.7860820 -0.1491650 -7.0784230 0 255 0
0.7861970 -0.1547250 -7.0783100 0 255 0
0.7864280 -0.1658460 -7.0780830 0 255 0
0.7865250 -0.1714080 -7.0780130 0 255 0
0.7817020 -0.2488300 -7.0630220 0 255 0
0.7817810 -0.2543830 -7.0629910 0 255 0
0.7820960 -0.2765930 -7.0628650 0 255 0
0.7847020 -0.2880430 -7.0713390 0 255 0
0.7849360 -0.3047120 -7.0712430 0 255 0
0.7826300 -0.3321490 -7.0631420 0 255 0
0.8204330 0.2398530 -7.1954340 0 255 0
0.8235670 0.2350050 -7.2050510 0 255 0
0.8168960 0.2310180 -7.1819480 0 255 0
0.8179670 0.2294390 -7.1863250 0 255 0
0.8291830 0.2271910 -7.2220140 0 255 0
0.8224880 0.2246800 -7.2006980 0 255 0
0.8269540 0.2250680 -7.2148410 0 255 0
0.8141640 0.2196540 -7.1741800 0 255 0
0.8180800 0.2191420 -7.1867900 0 255 0
0.8301490 0.2202280 -7.2244520 0 255 0
0.8142540 0.2140340 -7.1741540 0 255 0
0.8143450 0.2084130 -7.1741280 0 255 0
0.8144350 0.2027920 -7.1741010 0 255 0
0.8306690 0.1996840 -7.2253210 0 255 0
0.8065120 0.1912650 -7.1494500 0 255 0
0.8146150 0.1915510 -7.1740480 0 255 0
0.8340910 0.1897080 -7.2351360 0 255 0
0.8066010 0.1856580 -7.1494230 0 255 0
0.8353080 0.1845490 -7.2402480 0 255 0
0.8066900 0.1800520 -7.1493960 0 255 0
0.8067800 0.1744450 -7.1493700 0 255 0
0.8330080 0.1753270 -7.2330010 0 255 0
0.8046470 0.1519560 -7.1405840 0 255 0
0.8380320 0.1381800 -7.2469780 0 255 0
0.8364420 0.1327900 -7.2425530 0 255 0
0.8352900 0.1310660 -7.2376690 0 255 0
0.8397830 0.1174520 -7.2527390 0 255 0
0.8345360 0.0856930 -7.2350960 0 255 0
0.7999330 0.0791170 -7.1251080 0 255 0
0.7975840 0.0567610 -7.1168990 0 255 0
0.8411200 0.0074930 -7.2527330 0 255 0
0.7934030 -0.0324810 -7.1006930 0 255 0
0.7908940 -0.0714420 -7.0934340 0 255 0
0.7910590 -0.0770100 -7.0932040 0 255 0
0.7911420 -0.0825840 -7.0931740 0 255 0
0.7912250 -0.0881580 -7.0931440 0 255 0
0.7912260 -0.0937400 -7.0933150 0 255 0
0.7891490 -0.1325770 -7.0849960 0 255 0
0.7866760 -0.1602420 -7.0773150 0 255 0
0.7866200 -0.1769700 -7.0779500 0 255 0
0.7870820 -0.1824850 -7.0769930 0 255 0
0.7871180 -0.1992010 -7.0774000 0 255 0
0.7821240 -0.2265070 -7.0613580 0 255 0
0.7822710 -0.2598710 -7.0619660 0 255 0
0.7853220 -0.3102130 -7.0704640 0 255 0
0.7779910 -0.3757630 -7.0467460 0 255 0
0.8199210 0.2348830 -7.1905950 0 255 0
0.8204380 0.2298900 -7.1906470 0 255 0
0.8144840 0.2252630 -7.1731830 0 255 0
0.8186850 0.2245090 -7.1862960 0 255 0
0.8202780 0.2195040 -7.1912240 0 255 0
0.8206110 0.2144430 -7.1913490 0 255 0
0.8176510 0.2090150 -7.1821650 0 255 0
0.8172590 0.2085180 -7.1818420 0 255 0
0.8175550 0.2028890 -7.1813040 0 255 0
0.8339660 0.2000460 -7.2346390 0 255 0
0.8149360 0.1971640 -7.1730520 0 255 0
0.8096190 0.1913540 -7.1566160 0 255 0
0.8121140 0.1914520 -7.1653240 0 255 0
0.8329380 0.1896930 -7.2302740 0 255 0
0.8097080 0.1857430 -7.1565900 0 255 0
0.8343190 0.1845900 -7.2353170 0 255 0
0.8097980 0.1801330 -7.1565630 0 255 0
0.8300920 0.1790910 -7.2213060 0 255 0
0.8340680 0.1764530 -7.2331460 0 255 0
0.8072390 0.1688360 -7.1484280 0 255 0
0.8351700 0.1692730 -7.2357950 0 255 0
0.8075740 0.1632290 -7.1477920 0 255 0
0.8369490 0.1590780 -7.2409630 0 255 0
0.8350600 0.1536000 -7.2366630 0 255 0
0.8354240 0.1485060 -7.2367910 0 255 0
0.8052200 0.1351520 -7.1397420 0 255 0
0.8372060 0.1382840 -7.2419650 0 255 0
0.8052060 0.1295500 -7.1399680 0 255 0
0.8373350 0.1278660 -7.2424670 0 255 0
0.8050880 0.1239460 -7.1404480 0 255 0
0.8391210 0.1176180 -7.2476510 0 255 0
0.8025590 0.1071150 -7.1324630 0 255 0
0.8409090 0.1073560 -7.2528410 0 255 0
0.8029460 0.1015230 -7.1316980 0 255 0
0.8006460 0.0735420 -7.1235410 0 255 0
0.8404660 0.0549460 -7.2504650 0 255 0
0.7981120 0.0344140 -7.1163330 0 255 0
0.8407330 0.0338810 -7.2514810 0 255 0
0.7957940 0.0177060 -7.1078810 0 255 0
0.8416480 0.0183100 -7.2519520 0 255 0
0.7958790 0.0121230 -7.1078520 0 255 0
0.8413580 0.0128940 -7.2523530 0 255 0
0.7959640 0.0065400 -7.1078240 0 255 0
0.7962770 -0.0102060 -7.1075940 0 255 0
0.7938430 -0.0380340 -7.0997940 0 255 0
0.7939270 -0.0436130 -7.0997640 0 255 0
0.7915550 -0.0992910 -7.0926850 0 255 0
0.7918840 -0.1048400 -7.0920540 0 255 0
0.7920610 -0.1104030 -7.0917930 0 255 0
0.7896080 -0.1381030 -7.0840500 0 255 0
0.7872040 -0.1880430 -7.0768630 0 255 0
0.7873460 -0.1935970 -7.0766830 0 255 0
0.7851340 -0.2100090 -7.0680440 0 255 0
0.7852810 -0.2489640 -7.0688210 0 255 0
0.7827610 -0.2653570 -7.0609410 0 255 0
0.7826340 -0.2709410 -7.0614060 0 255 0
0.7857770 -0.3157010 -7.0695200 0 255 0
0.7832000 -0.3376060 -7.0619170 0 255 0
0.7808950 -0.3649800 -7.0538320 0 255 0
0.7759150 -0.3863620 -7.0376960 0 255 0
0.7735070 -0.4025510 -7.0296160 0 255 0
0.8278780 0.2460140 -7.2134080 0 255 0
0.8221410 0.2249250 -7.1955310 0 255 0
0.8221990 0.2197760 -7.1957670 0 255 0
0.8241790 0.2148960 -7.2005460 0 255 0
0.8317230 0.2155740 -7.2240870 0 255 0
0.8209450 0.2093780 -7.1914740 0 255 0
0.8330190 0.2104630 -7.2291530 0 255 0
0.8196710 0.2041420 -7.1869280 0 255 0
0.8303980 0.1999620 -7.2201090 0 255 0
0.8178580 0.1916380 -7.1809430 0 255 0
0.8184260 0.1914110 -7.1825180 0 255 0
0.8307960 0.1897190 -7.2204850 0 255 0
0.8319400 0.1897310 -7.2253490 0 255 0
0.8126150 0.1858310 -7.1642770 0 255 0
0.8168590 0.1851280 -7.1761400 0 255 0
0.8311330 0.1846390 -7.2206180 0 255 0
0.8130330 0.1802130 -7.1634340 0 255 0
0.8292700 0.1791890 -7.2163100 0 255 0
0.8102980 0.1745190 -7.1555180 0 255 0
0.8326320 0.1743730 -7.2258820 0 255 0
0.8343460 0.1693720 -7.2307930 0 255 0
0.8358420 0.1590820 -7.2360720 0 255 0
0.8053520 0.1463550 -7.1390360 0 255 0
0.8052640 0.1407540 -7.1394430 0 255 0
0.8351300 0.1278850 -7.2326620 0 255 0
0.8366740 0.1280290 -7.2373840 0 255 0
0.8380630 0.1228830 -7.2424480 0 255 0
0.8056730 0.1183510 -7.1391950 0 255 0
0.8384590 0.1177830 -7.2425640 0 255 0
0.8400150 0.1126880 -7.2475660 0 255 0
0.8033220 0.0959330 -7.1309590 0 255 0
0.8011330 0.0511780 -7.1230830 0 255 0
0.7989170 0.0288600 -7.1145420 0 255 0
0.8420500 0.0290650 -7.2512240 0 255 0
0.8420150 0.0237500 -7.2515200 0 255 0
0.7964060 -0.0157860 -7.1074580 0 255 0
0.7944770 -0.0491550 -7.0985980 0 255 0
0.7924590 -0.1159430 -7.0909930 0 255 0
0.7899970 -0.1436360 -7.0832710 0 255 0
0.7829210 -0.2319530 -7.0595940 0 255 0
0.7830230 -0.2375010 -7.0595090 0 255 0
0.7831020 -0.2430510 -7.0594770 0 255 0
0.7861560 -0.3211990 -7.0687570 0 255 0
0.7862740 -0.3267450 -7.0686250 0 255 0
0.7836470 -0.3430840 -7.0609910 0 255 0
0.7840060 -0.3541390 -7.0604300 0 255 0
0.7790950 -0.3810920 -7.0442400 0 255 0
0.7764020 -0.3918080 -7.0366760 0 255 0
0.7712310 -0.4131440 -7.0210910 0 255 0
0.8342280 0.2453970 -7.2309640 0 255 0
0.8261930 0.2151990 -7.2050530 0 255 0
0.8291180 0.2154400 -7.2145050 0 255 0
0.8235320 0.2046930 -7.1960140 0 255 0
0.8315610 0.1951640 -7.2199090 0 255 0
0.8189970 0.1909070 -7.1805980 0 255 0
0.8300350 0.1846430 -7.2157350 0 255 0
0.8365570 0.1645370 -7.2355070 0 255 0
0.8082790 0.1576220 -7.1462420 0 255 0
0.8371440 0.1438760 -7.2363680 0 255 0
0.8345310 0.1433220 -7.2283510 0 255 0
0.8348630 0.1343040 -7.2293890 0 255 0
0.8372730 0.1334680 -7.2368660 0 255 0
0.8374020 0.1230470 -7.2373650 0 255 0
0.8062900 0.1127580 -7.1378590 0 255 0
0.8426340 0.1027130 -7.2524180 0 255 0
0.8037450 0.0903440 -7.1301040 0 255 0
0.8412420 0.0815930 -7.2487450 0 255 0
0.8013050 0.0679680 -7.1221080 0 255 0
0.8015230 0.0623820 -7.1217550 0 255 0
0.8015390 0.0567890 -7.1219000 0 255 0
0.8014300 0.0455950 -7.1225360 0 255 0
0.7966360 0.0009910 -7.1063590 0 255 0
0.7967500 -0.0045890 -7.1062590 0 255 0
0.7970720 -0.0213300 -7.1060050 0 255 0
0.7949460 -0.0547010 -7.0976280 0 255 0
0.7928150 -0.1214860 -7.0902960 0 255 0
0.7903870 -0.1491670 -7.0824910 0 255 0
0.7884310 -0.2045940 -7.0743780 0 255 0
0.7858300 -0.2154790 -7.0665210 0 255 0
0.7860790 -0.2544080 -7.0670490 0 255 0
0.7890820 -0.2936330 -7.0753700 0 255 0
0.7842040 -0.3485400 -7.0598000 0 255 0
0.7768890 -0.3972520 -7.0356570 0 255 0
0.8379880 0.2498390 -7.2395770 0 255 0
0.8184240 0.2253520 -7.1783360 0 255 0
0.8252620 0.2100800 -7.2003760 0 255 0
0.8258410 0.2050950 -7.2004070 0 255 0
0.8215000 0.2029710 -7.1864630 0 255 0
0.8240880 0.1996970 -7.1960530 0 255 0
0.8188760 0.1972430 -7.1782040 0 255 0
0.8244230 0.1946250 -7.1961790 0 255 0
0.8307260 0.1900670 -7.2151920 0 255 0
0.8277300 0.1846130 -7.2060160 0 255 0
0.8292740 0.1795650 -7.2109840 0 255 0
0.8296900 0.1745070 -7.2110820 0 255 0
0.8110270 0.1689050 -7.1539050 0 255 0
0.8253340 0.1637570 -7.1973760 0 255 0
0.8359150 0.1542760 -7.2309780 0 255 0
0.8090140 0.1239980 -7.1455710 0 255 0
0.8358220 0.1260030 -7.2298790 0 255 0
0.8367410 0.1232110 -7.2322830 0 255 0
0.8067880 0.1071650 -7.1368180 0 255 0
0.8417390 0.1080470 -7.2471420 0 255 0
0.8042430 0.0847600 -7.1290650 0 255 0
0.8406560 0.0870540 -7.2433380 0 255 0
0.8387270 0.0867750 -7.2387590 0 255 0
0.8404120 0.0817060 -7.2437160 0 255 0
0.8022190 0.0400340 -7.1207780 0 255 0
0.7996470 0.0233050 -7.1129310 0 255 0
0.7999090 0.0177290 -7.1124710 0 255 0
0.7976210 -0.0268790 -7.1048370 0 255 0
0.7952530 -0.0602590 -7.0970510 0 255 0
0.7953700 -0.0658310 -7.0969400 0 255 0
0.7956620 -0.0937190 -7.0970930 0 255 0
0.7931710 -0.1270280 -7.0895990 0 255 0
0.7908450 -0.1546880 -7.0815450 0 255 0
0.7911070 -0.1658060 -7.0812430 0 255 0
0.7910670 -0.1713860 -7.0815050 0 255 0
0.7862180 -0.2209890 -7.0657440 0 255 0
0.7865360 -0.2432050 -7.0656200 0 255 0
0.7896190 -0.2879700 -7.0739070 0 255 0
0.7895290 -0.2991260 -7.0744410 0 255 0
0.7748150 -0.4078120 -7.0266300 0 255 0
0.8243320 0.2087030 -7.1942230 0 255 0
0.8306780 0.2004230 -7.2146780 0 255 0
0.8220900 0.1917110 -7.1853840 0 255 0
0.8207510 0.1893190 -7.1819580 0 255 0
0.8165520 0.1859060 -7.1694210 0 255 0
0.8164770 0.1682210 -7.1687160 0 255 0
0.8343490 0.1697520 -7.2254600 0 255 0
0.8117890 0.1632940 -7.1522090 0 255 0
0.8360630 0.1647490 -7.2303720 0 255 0
0.8093930 0.1520180 -7.1436770 0 255 0
0.8095110 0.1408130 -7.1437680 0 255 0
0.8095560 0.1352110 -7.1438490 0 255 0
0.8391240 0.1184110 -7.2369410 0 255 0
0.8402060 0.1131520 -7.2421310 0 255 0
0.8047980 0.0791780 -7.1278820 0 255 0
0.8432870 0.0612430 -7.2490320 0 255 0
0.8433720 0.0454270 -7.2498400 0 255 0
0.7999940 0.0121440 -7.1124420 0 255 0
0.8428550 0.0138770 -7.2463510 0 255 0
0.8003250 0.0065730 -7.1118100 0 255 0
0.7980860 -0.0324330 -7.1038770 0 255 0
0.7956030 -0.0713940 -7.0965460 0 255 0
0.7957470 -0.0769640 -7.0963680 0 255 0
0.7957780 -0.0825430 -7.0964650 0 255 0
0.7957440 -0.0881290 -7.0967210 0 255 0
0.7959910 -0.0992710 -7.0964610 0 255 0
0.7938000 -0.1325380 -7.0882350 0 255 0
0.7939160 -0.1381030 -7.0881210 0 255 0
0.7911990 -0.1602200 -7.0808490 0 255 0
0.7915110 -0.1769040 -7.0805920 0 255 0
0.7917230 -0.1880250 -7.0804050 0 255 0
0.7867080 -0.2264840 -7.0647190 0 255 0
0.7869930 -0.2320070 -7.0641910 0 255 0
0.7871840 -0.2597990 -7.0645320 0 255 0
0.7870880 -0.2820740 -7.0654000 0 255 0
0.7826960 -0.3701760 -7.0496380 0 255 0
0.8284790 0.2056050 -7.2046660 0 255 0
0.8248330 0.2030640 -7.1931690 0 255 0
0.8271130 0.2003380 -7.2001610 0 255 0
0.8224100 0.1973290 -7.1843850 0 255 0
0.8291050 0.1954510 -7.2049410 0 255 0
0.8255850 0.1898270 -7.1959770 0 255 0
0.8196710 0.1859910 -7.1766150 0 255 0
0.8275690 0.1849320 -7.2007630 0 255 0
0.8172560 0.1802820 -7.1678620 0 255 0
0.8290040 0.1798480 -7.2057710 0 255 0
0.8144350 0.1745870 -7.1601450 0 255 0
0.8173460 0.1746660 -7.1678360 0 255 0
0.8322850 0.1750090 -7.2153660 0 255 0
0.8174350 0.1690510 -7.1678090 0 255 0
0.8199400 0.1691280 -7.1765350 0 255 0
0.8176410 0.1634130 -7.1685100 0 255 0
0.8122060 0.1576860 -7.1513690 0 255 0
0.8369540 0.1598440 -7.2302840 0 255 0
0.8094820 0.1464160 -7.1436500 0 255 0
0.8370820 0.1494600 -7.2307780 0 255 0
0.8348970 0.1390420 -7.2215260 0 255 0
0.8388640 0.1392450 -7.2359460 0 255 0
0.8096880 0.1296090 -7.1437130 0 255 0
0.8099220 0.1184040 -7.1435140 0 255 0
0.8075320 0.1015790 -7.1351700 0 255 0
0.8443590 0.0980700 -7.2519940 0 255 0
0.8418680 0.0927420 -7.2425670 0 255 0
0.8400460 0.0819830 -7.2385000 0 255 0
0.8392820 0.0768560 -7.2337230 0 255 0
0.8436160 0.0719080 -7.2483360 0 255 0
0.8438100 0.0667060 -7.2485380 0 255 0
0.8052750 0.0512120 -7.1276340 0 255 0
0.8029500 0.0344740 -7.1191650 0 255 0
0.8433060 0.0193490 -7.2458870 0 255 0
0.8007790 0.0010100 -7.1108760 0 255 0
0.8008640 -0.0045730 -7.1108470 0 255 0
0.8007440 -0.0101700 -7.1113210 0 255 0
0.7982820 -0.0380040 -7.1035740 0 255 0
0.7986740 -0.0435600 -7.1027920 0 255 0
0.8446670 -0.0547330 -7.2492650 0 255 0
0.7964760 -0.1048050 -7.0954480 0 255 0
0.7943050 -0.1436370 -7.0873410 0 255 0
0.7919860 -0.1824170 -7.0796010 0 255 0
0.7870720 -0.2375590 -7.0641600 0 255 0
0.7902790 -0.2822900 -7.0721460 0 255 0
0.7902640 -0.3045670 -7.0728150 0 255 0
0.7877890 -0.3320300 -7.0651120 0 255 0
0.7857250 -0.3593620 -7.0564270 0 255 0
0.8306820 0.2007920 -7.2093610 0 255 0
0.8277240 0.1953590 -7.2001790 0 255 0
0.8190580 0.1843040 -7.1722630 0 255 0
0.8193920 0.1792250 -7.1723820 0 255 0
0.8301670 0.1750440 -7.2055690 0 255 0
0.8149340 0.1689730 -7.1590990 0 255 0
0.8314060 0.1698880 -7.2106600 0 255 0
0.8343520 0.1701310 -7.2201300 0 255 0
0.8150230 0.1633630 -7.1590720 0 255 0
0.8179340 0.1634330 -7.1667610 0 255 0
0.8359000 0.1650740 -7.2251050 0 255 0
0.8151120 0.1577520 -7.1590450 0 255 0
0.8205280 0.1578850 -7.1754570 0 255 0
0.8127050 0.1520800 -7.1503250 0 255 0
0.8181120 0.1522030 -7.1667070 0 255 0
0.8347290 0.1472740 -7.2195420 0 255 0
0.8382490 0.1446430 -7.2305790 0 255 0
0.8128820 0.1408680 -7.1502710 0 255 0
0.8370380 0.1393920 -7.2260020 0 255 0
0.8129700 0.1352630 -7.1502440 0 255 0
0.8374060 0.1238360 -7.2266680 0 255 0
0.8402430 0.1135620 -7.2367630 0 255 0
0.8417400 0.1084470 -7.2417850 0 255 0
0.8434630 0.1034060 -7.2467180 0 255 0
0.8080440 0.0959910 -7.1340940 0 255 0
0.8409570 0.0980760 -7.2373010 0 255 0
0.8082810 0.0903980 -7.1336980 0 255 0
0.8055100 0.0736040 -7.1263150 0 255 0
0.8056310 0.0680120 -7.1262030 0 255 0
0.8057610 0.0624220 -7.1260670 0 255 0
0.8059060 0.0568320 -7.1258940 0 255 0
0.8449670 0.0512900 -7.2489070 0 255 0
0.8060200 0.0456450 -7.1259820 0 255 0
0.8012380 -0.0157270 -7.1102870 0 255 0
0.7968000 -0.1103540 -7.0948290 0 255 0
0.7970880 -0.1159060 -7.0942950 0 255 0
0.7971950 -0.1214750 -7.0942040 0 255 0
0.7948650 -0.1491490 -7.0861440 0 255 0
0.7923090 -0.1935210 -7.0791450 0 255 0
0.7925300 -0.1990640 -7.0787720 0 255 0
0.7900150 -0.2099440 -7.0706950 0 255 0
0.7901870 -0.2488940 -7.0714120 0 255 0
0.7902760 -0.2544490 -7.0713580 0 255 0
0.7908100 -0.3100380 -7.0716450 0 255 0
0.7909660 -0.3155780 -7.0714230 0 255 0
0.7884810 -0.3374630 -7.0635890 0 255 0
0.7835110 -0.3755640 -7.0478230 0 255 0
0.7812240 -0.3862030 -7.0392680 0 255 0
0.7786060 -0.4024320 -7.0316810 0 255 0
0.7759990 -0.4130960 -7.0239410 0 255 0
0.8301360 0.2009780 -7.2042670 0 255 0
0.8229060 0.1848530 -7.1813630 0 255 0
0.8290080 0.1802240 -7.2004510 0 255 0
0.8219870 0.1693340 -7.1771760 0 255 0
0.8338960 0.1703540 -7.2149870 0 255 0
0.8311180 0.1649650 -7.2057170 0 255 0
0.8278790 0.1594160 -7.1966240 0 255 0
0.8132030 0.1464750 -7.1492820 0 255 0
0.8354960 0.1444690 -7.2210150 0 255 0
0.8159930 0.1409220 -7.1574360 0 255 0
0.8160810 0.1353130 -7.1574090 0 255 0
0.8363600 0.1343230 -7.2212070 0 255 0
0.8134680 0.1296610 -7.1492000 0 255 0
0.8108300 0.1128150 -7.1414580 0 255 0
0.8429010 0.0983600 -7.2418680 0 255 0
0.8444260 0.0932440 -7.2468850 0 255 0
0.8446280 0.0775370 -7.2476430 0 255 0
0.8065740 0.0400740 -7.1248000 0 255 0
0.8037530 0.0289200 -7.1173730 0 255 0
0.8041450 0.0233480 -7.1165890 0 255 0
0.8040260 0.0177510 -7.1170640 0 255 0
0.8041110 0.0121650 -7.1170350 0 255 0
0.8042780 0.0065830 -7.1168050 0 255 0
0.8019560 -0.0212670 -7.1087040 0 255 0
0.7993290 -0.0490940 -7.1013650 0 255 0
0.7977550 -0.1269960 -7.0930060 0 255 0
0.7952200 -0.1546840 -7.0854480 0 255 0
0.7903690 -0.2154620 -7.0700000 0 255 0
0.7908020 -0.2265330 -7.0692750 0 255 0
0.7906760 -0.2321180 -7.0697410 0 255 0
0.7908350 -0.2432270 -7.0696790 0 255 0
0.7924180 -0.2784310 -7.0736980 0 255 0
0.8263570 0.1974080 -7.1895470 0 255 0
0.8263240 0.1917830 -7.1898280 0 255 0
0.8224210 0.1798710 -7.1765000 0 255 0
0.8313310 0.1702400 -7.2053680 0 255 0
0.8330440 0.1652410 -7.2102700 0 255 0
0.8300260 0.1597680 -7.2010920 0 255 0
0.8377830 0.1605080 -7.2246170 0 255 0
0.8395270 0.1398630 -7.2303350 0 255 0
0.8368170 0.1308050 -7.2219550 0 255 0
0.8367920 0.1292460 -7.2213030 0 255 0
0.8137610 0.1240580 -7.1486650 0 255 0
0.8399540 0.1190960 -7.2312560 0 255 0
0.8386400 0.1137950 -7.2267130 0 255 0
0.8115320 0.1072250 -7.1399100 0 255 0
0.8415750 0.1087880 -7.2364980 0 255 0
0.8434630 0.1038070 -7.2413610 0 255 0
0.8450210 0.0987070 -7.2463620 0 255 0
0.8087770 0.0848130 -7.1326590 0 255 0
0.8410450 0.0722200 -7.2332840 0 255 0
0.8451700 0.0359250 -7.2442870 0 255 0
0.8453070 0.0253850 -7.2447910 0 255 0
0.8442820 0.0095270 -7.2406630 0 255 0
0.8044860 0.0010040 -7.1164740 0 255 0
0.8045710 -0.0045820 -7.1164460 0 255 0
0.8446070 -0.0062920 -7.2413660 0 255 0
0.8024310 -0.0268210 -7.1077150 0 255 0
0.7998700 -0.0546340 -7.1002140 0 255 0
0.7999640 -0.0602090 -7.1001600 0 255 0
0.8000600 -0.0657840 -7.1001000 0 255 0
0.8003550 -0.0825070 -7.0998980 0 255 0
0.8000990 -0.0936980 -7.1008710 0 255 0
0.7981450 -0.1325330 -7.0922250 0 255 0
0.7982600 -0.1381000 -7.0921110 0 255 0
0.7955740 -0.1602170 -7.0847520 0 255 0
0.7955810 -0.1657920 -7.0849030 0 255 0
0.7958850 -0.1713290 -7.0843270 0 255 0
0.7933480 -0.2045240 -7.0769460 0 255 0
0.7909950 -0.2209380 -7.0686430 0 255 0
0.7911240 -0.2376170 -7.0688150 0 255 0
0.7912770 -0.2598580 -7.0690870 0 255 0
0.7885750 -0.2651400 -7.0613210 0 255 0
0.7889820 -0.2706350 -7.0604960 0 255 0
0.7919320 -0.3209690 -7.0692340 0 255 0
0.7843260 -0.3809500 -7.0460100 0 255 0
0.7821140 -0.3971090 -7.0374260 0 255 0
0.7770590 -0.4184010 -7.0215500 0 255 0
0.7744620 -0.4235050 -7.0136640 0 255 0
0.7716070 -0.4299030 -7.0042900 0 255 0
0.8295780 0.1918710 -7.1967420 0 255 0
0.8230310 0.1748840 -7.1765120 0 255 0
0.8302330 0.1702450 -7.2004860 0 255 0
0.8268060 0.1692720 -7.1894140 0 255 0
0.8231500 0.1645280 -7.1769700 0 255 0
0.8271000 0.1636430 -7.1888730 0 255 0
0.8387380 0.1504140 -7.2247730 0 255 0
0.8355620 0.1396590 -7.2159220 0 255 0
0.8391270 0.1192020 -7.2262440 0 255 0
0.8409140 0.1089540 -7.2314150 0 255 0
0.8410460 0.0985100 -7.2319100 0 255 0
0.8092740 0.0792290 -7.1316190 0 255 0
0.8095650 0.0736410 -7.1310860 0 255 0
0.8446960 0.0727050 -7.2425280 0 255 0
0.8096520 0.0680460 -7.1310580 0 255 0
0.8097380 0.0624520 -7.1310300 0 255 0
0.8452850 0.0571020 -7.2431240 0 255 0
0.8098230 0.0512610 -7.1311900 0 255 0
0.8073150 0.0345130 -7.1231570 0 255 0
0.8443390 0.0360440 -7.2392490 0 255 0
0.8446110 0.0149550 -7.2402510 0 255 0
0.8050240 -0.0101450 -7.1155100 0 255 0
0.8027200 -0.0323870 -7.1071830 0 255 0
0.8028040 -0.0379670 -7.1071540 0 255 0
0.8002870 -0.0713480 -7.0997190 0 255 0
0.8004040 -0.0769200 -7.0996060 0 255 0
0.8004510 -0.0880810 -7.0998350 0 255 0
0.8006510 -0.0992290 -7.0996920 0 255 0
0.7964130 -0.1768370 -7.0832070 0 255 0
0.7897880 -0.3427760 -7.0605760 0 255 0
0.7797070 -0.4077380 -7.0291850 0 255 0
0.7721150 -0.4285460 -7.0052050 0 255 0
0.8251710 0.1804240 -7.1807240 0 255 0
0.8296250 0.1756120 -7.1951510 0 255 0
0.8270010 0.1650800 -7.1860780 0 255 0
0.8330000 0.1604010 -7.2052290 0 255 0
0.8246750 0.1579490 -7.1800990 0 255 0
0.8393340 0.1558300 -7.2242610 0 255 0
0.8222550 0.1522650 -7.1713410 0 255 0
0.8276880 0.1523890 -7.1877930 0 255 0
0.8171330 0.1465350 -7.1544100 0 255 0
0.8277760 0.1467630 -7.1877660 0 255 0
0.8199270 0.1409800 -7.1625730 0 255 0
0.8278650 0.1411370 -7.1877380 0 255 0
0.8301950 0.1393580 -7.1967450 0 255 0
0.8200160 0.1353690 -7.1625460 0 255 0
0.8367910 0.1348620 -7.2156970 0 255 0
0.8173980 0.1297140 -7.1543290 0 255 0
0.8280430 0.1298840 -7.1876840 0 255 0
0.8383650 0.1291940 -7.2207180 0 255 0
0.8380710 0.1244610 -7.2210570 0 255 0
0.8148140 0.1184670 -7.1462440 0 255 0
0.8402520 0.1091200 -7.2263350 0 255 0
0.8124380 0.1016420 -7.1378560 0 255 0
0.8125760 0.0904460 -7.1378900 0 255 0
0.8419080 0.0830540 -7.2323840 0 255 0
0.8426890 0.0675410 -7.2328920 0 255 0
0.8099470 0.0568630 -7.1306990 0 255 0
0.8103040 0.0456830 -7.1301880 0 255 0
0.8458410 0.0467430 -7.2434550 0 255 0
0.8478720 0.0417760 -7.2482820 0 255 0
0.8077690 0.0289410 -7.1222210 0 255 0
0.8031220 -0.0435300 -7.1065510 0 255 0
0.8480790 -0.0587800 -7.2481530 0 255 0
0.8011250 -0.1047650 -7.0987050 0 255 0
0.7988880 -0.1436070 -7.0907460 0 255 0
0.7968810 -0.1823510 -7.0822320 0 255 0
0.7966220 -0.1879580 -7.0830290 0 255 0
0.7941660 -0.2099800 -7.0751210 0 255 0
0.7923800 -0.2652460 -7.0665690 0 255 0
0.7922540 -0.2708310 -7.0670350 0 255 0
0.7894700 -0.2761150 -7.0594720 0 255 0
0.7949840 -0.2822530 -7.0752260 0 255 0
0.7949450 -0.2878280 -7.0754790 0 255 0
0.7926230 -0.3264070 -7.0677100 0 255 0
0.7876470 -0.3645380 -7.0519350 0 255 0
0.7828810 -0.3914030 -7.0354290 0 255 0
0.7799280 -0.4121150 -7.0261750 0 255 0
0.7777080 -0.4237930 -7.0201410 0 255 0
0.8257830 0.1754390 -7.1807370 0 255 0
0.8261180 0.1703570 -7.1808590 0 255 0
0.8261790 0.1651790 -7.1810890 0 255 0
0.8244240 0.1597590 -7.1767220 0 255 0
0.8377850 0.1608900 -7.2192860 0 255 0
0.8307290 0.1580810 -7.1950390 0 255 0
0.8304230 0.1550770 -7.1958730 0 255 0
0.8367050 0.1556960 -7.2146610 0 255 0
0.8251730 0.1523270 -7.1790480 0 255 0
0.8306140 0.1524510 -7.1955260 0 255 0
0.8366910 0.1504810 -7.2149340 0 255 0
0.8202480 0.1465930 -7.1615810 0 255 0
0.8227520 0.1466490 -7.1702920 0 255 0
0.8371530 0.1454250 -7.2150160 0 255 0
0.8228410 0.1410340 -7.1702650 0 255 0
0.8229300 0.1354180 -7.1702380 0 255 0
0.8300130 0.1344630 -7.1917510 0 255 0
0.8230180 0.1298020 -7.1702100 0 255 0
0.8255280 0.1298430 -7.1789390 0 255 0
0.8176900 0.1241100 -7.1537930 0 255 0
0.8181300 0.1230150 -7.1543560 0 255 0
0.8388300 0.1194930 -7.2210220 0 255 0
0.8153690 0.1128720 -7.1450570 0 255 0
0.8154570 0.1072700 -7.1450290 0 255 0
0.8125660 0.0960450 -7.1377270 0 255 0
0.8411130 0.0936860 -7.2268040 0 255 0
0.8412450 0.0832250 -7.2272950 0 255 0
0.8413780 0.0727490 -7.2277870 0 255 0
0.8447630 0.0678740 -7.2374130 0 255 0
0.8466270 0.0523090 -7.2428560 0 255 0
0.8456370 0.0418050 -7.2384440 0 255 0
0.8452380 0.0310810 -7.2391610 0 255 0
0.8081050 0.0233650 -7.1215740 0 255 0
0.8081450 0.0177740 -7.1216590 0 255 0
0.8082300 0.0121860 -7.1216300 0 255 0
0.8444020 0.0100030 -7.2352300 0 255 0
0.8083740 0.0066010 -7.1214580 0 255 0
0.8085020 0.0010150 -7.1213210 0 255 0
0.8445380 -0.0005660 -7.2357290 0 255 0
0.8086210 -0.0045700 -7.1212080 0 255 0
0.8060910 -0.0156660 -7.1130660 0 255 0
0.8467570 -0.0214550 -7.2413270 0 255 0
0.8035500 -0.0490820 -7.1056780 0 255 0
0.8458080 -0.0640940 -7.2385440 0 255 0
0.8454250 -0.0981470 -7.2366310 0 255 0
0.8015370 -0.1103050 -7.0978650 0 255 0
0.8015680 -0.1158840 -7.0979610 0 255 0
0.8016780 -0.1214540 -7.0978630 0 255 0
0.7994330 -0.1491220 -7.0895830 0 255 0
0.7995970 -0.1546790 -7.0893520 0 255 0
0.7971850 -0.1934560 -7.0818210 0 255 0
0.7948120 -0.2321620 -7.0742000 0 255 0
0.7950050 -0.2432700 -7.0740540 0 255 0
0.7950970 -0.2488240 -7.0739920 0 255 0
0.7953000 -0.2766310 -7.0742970 0 255 0
0.7952280 -0.2933480 -7.0749480 0 255 0
0.7954290 -0.2988820 -7.0746180 0 255 0
0.7955890 -0.3044220 -7.0743860 0 255 0
0.7904790 -0.3482020 -7.0590550 0 255 0
0.7883370 -0.3699530 -7.0504160 0 255 0
0.8277060 0.1757140 -7.1852870 0 255 0
0.8277670 0.1705390 -7.1855190 0 255 0
0.8267360 0.1601670 -7.1811240 0 255 0
0.8342750 0.1556300 -7.2049830 0 255 0
0.8362640 0.1507180 -7.2097770 0 255 0
0.8360530 0.1454330 -7.2101270 0 255 0
0.8273110 0.1395240 -7.1819170 0 255 0
0.8333180 0.1348280 -7.2010910 0 255 0
0.8205130 0.1297610 -7.1614990 0 255 0
0.8218180 0.1287390 -7.1633040 0 255 0
0.8290860 0.1293080 -7.1870510 0 255 0
0.8206010 0.1241500 -7.1614720 0 255 0
0.8291470 0.1241040 -7.1872840 0 255 0
0.8397320 0.1145740 -7.2209280 0 255 0
0.8183630 0.1072970 -7.1526940 0 255 0
0.8159530 0.1016770 -7.1439870 0 255 0
0.8131970 0.0848630 -7.1365430 0 255 0
0.8390360 0.0832520 -7.2174790 0 255 0
0.8134000 0.0792690 -7.1362260 0 255 0
0.8421410 0.0782850 -7.2272060 0 255 0
0.8132820 0.0736670 -7.1367040 0 255 0
0.8133690 0.0680700 -7.1366760 0 255 0
0.8425510 0.0679040 -7.2275860 0 255 0
0.8134560 0.0624740 -7.1366480 0 255 0
0.8426970 0.0626880 -7.2278010 0 255 0
0.8439890 0.0622190 -7.2336640 0 255 0
0.8450950 0.0584980 -7.2365890 0 255 0
0.8459600 0.0472060 -7.2380350 0 255 0
0.8111060 0.0401210 -7.1283910 0 255 0
0.8112740 0.0345330 -7.1281600 0 255 0
0.8449690 0.0049050 -7.2352770 0 255 0
0.8457170 -0.0054420 -7.2355270 0 255 0
0.8040790 -0.0546250 -7.1045560 0 255 0
0.8042850 -0.0601920 -7.1042250 0 255 0
0.8481480 -0.0636520 -7.2429980 0 255 0
0.8042460 -0.0657800 -7.1044970 0 255 0
0.8471030 -0.0689530 -7.2382960 0 255 0
0.8022420 -0.1269750 -7.0966520 0 255 0
0.7999510 -0.1602130 -7.0886550 0 255 0
0.8000560 -0.1657770 -7.0885640 0 255 0
0.7978790 -0.1989350 -7.0802940 0 255 0
0.7950100 -0.2154300 -7.0732310 0 255 0
0.7953630 -0.2209460 -7.0725360 0 255 0
0.7952470 -0.2265300 -7.0729790 0 255 0
0.7954650 -0.2376320 -7.0727740 0 255 0
0.7957020 -0.2542970 -7.0726800 0 255 0
0.7810120 -0.4129940 -7.0262010 0 255 0
0.8349500 0.2079240 -7.2065410 0 255 0
0.8308200 0.1503870 -7.1906540 0 255 0
0.8295140 0.1398970 -7.1863670 0 255 0
0.8306130 0.1398890 -7.1912540 0 255 0
0.8280350 0.1345550 -7.1818870 0 255 0
0.8279860 0.1293170 -7.1821610 0 255 0
0.8340430 0.1298560 -7.2010640 0 255 0
0.8206520 0.1235000 -7.1586900 0 255 0
0.8185970 0.1185140 -7.1517320 0 255 0
0.8388940 0.1199100 -7.2156560 0 255 0
0.8409160 0.1097510 -7.2207210 0 255 0
0.8188600 0.1017000 -7.1516490 0 255 0
0.8427030 0.0994960 -7.2258890 0 255 0
0.8160410 0.0960760 -7.1439600 0 255 0
0.8395230 0.0886790 -7.2170140 0 255 0
0.8414460 0.0679190 -7.2226740 0 255 0
0.8464900 0.0632250 -7.2369890 0 255 0
0.8139100 0.0568910 -7.1357090 0 255 0
0.8142420 0.0513050 -7.1350740 0 255 0
0.8461650 0.0525600 -7.2376750 0 255 0
0.8116860 0.0289570 -7.1273240 0 255 0
0.8453060 0.0262370 -7.2340350 0 255 0
0.8444700 0.0051530 -7.2300970 0 255 0
0.8094700 -0.0101100 -7.1192980 0 255 0
0.8464100 -0.0158200 -7.2357990 0 255 0
0.8068560 -0.0212030 -7.1113650 0 255 0
0.8071290 -0.0267710 -7.1108720 0 255 0
0.8072260 -0.0379380 -7.1109880 0 255 0
0.8047000 -0.0824930 -7.1039060 0 255 0
0.8048850 -0.0880600 -7.1036260 0 255 0
0.8476600 -0.0901920 -7.2391840 0 255 0
0.8049670 -0.0936360 -7.1035960 0 255 0
0.8005830 -0.1712870 -7.0874430 0 255 0
0.7961900 -0.2597860 -7.0716530 0 255 0
0.7891500 -0.3753400 -7.0486030 0 255 0
0.7839100 -0.4022700 -7.0332520 0 255 0
0.8344780 0.1581460 -7.2007230 0 255 0
0.8331320 0.1507960 -7.1950560 0 255 0
0.8341210 0.1507510 -7.1999840 0 255 0
0.8364590 0.1355250 -7.2051660 0 255 0
0.8261540 0.1294620 -7.1722400 0 255 0
0.8347690 0.1248830 -7.2010370 0 255 0
0.8214230 0.1185410 -7.1586370 0 255 0
0.8201850 0.1132730 -7.1540470 0 255 0
0.8216010 0.1073300 -7.1595550 0 255 0
0.8402200 0.0994230 -7.2161970 0 255 0
0.8192740 0.0961020 -7.1508090 0 255 0
0.8165370 0.0904860 -7.1429180 0 255 0
0.8169010 0.0848940 -7.1422020 0 255 0
0.8418650 0.0785950 -7.2219620 0 255 0
0.8170020 0.0736930 -7.1423270 0 255 0
0.8457280 0.0580930 -7.2322100 0 255 0
0.8443690 0.0474670 -7.2279440 0 255 0
0.8456030 0.0422130 -7.2330870 0 255 0
0.8457130 0.0369680 -7.2333180 0 255 0
0.8458070 0.0317140 -7.2335560 0 255 0
0.8462060 0.0212720 -7.2339460 0 255 0
0.8123510 0.0122070 -7.1262280 0 255 0
0.8468960 -0.0103180 -7.2353250 0 255 0
0.8484930 -0.0261300 -7.2409000 0 255 0
0.8072810 -0.0323480 -7.1106740 0 255 0
0.8074120 -0.0435120 -7.1107070 0 255 0
0.8077840 -0.0546560 -7.1101460 0 255 0
0.8050790 -0.0712920 -7.1026280 0 255 0
0.8051700 -0.0768670 -7.1025780 0 255 0
0.8055460 -0.0991640 -7.1023500 0 255 0
0.8029670 -0.1324760 -7.0950470 0 255 0
0.8011100 -0.1767950 -7.0863220 0 255 0
0.7984410 -0.2044290 -7.0790870 0 255 0
0.7964320 -0.2653130 -7.0712240 0 255 0
0.7963470 -0.2708920 -7.0715900 0 255 0
0.7966890 -0.3097930 -7.0718650 0 255 0
0.7967670 -0.3153450 -7.0718330 0 255 0
0.7945420 -0.3316120 -7.0632050 0 255 0
0.7769950 -0.4284710 -7.0077540 0 255 0
0.8236870 0.1460850 -7.1636490 0 255 0
0.8322060 0.1456510 -7.1903630 0 255 0
0.8383860 0.1358030 -7.2097240 0 255 0
0.8278520 0.1296600 -7.1768920 0 255 0
0.8264000 0.1243240 -7.1723960 0 255 0
0.8267370 0.1192140 -7.1725150 0 255 0
0.8256060 0.1139830 -7.1678890 0 255 0
0.8221150 0.1135530 -7.1586140 0 255 0
0.8406990 0.1100730 -7.2154660 0 255 0
0.8420850 0.1049220 -7.2205200 0 255 0
0.8410140 0.0944570 -7.2161460 0 255 0
0.8395900 0.0838550 -7.2119070 0 255 0
0.8170950 0.0792980 -7.1419090 0 255 0
0.8424850 0.0735560 -7.2219840 0 255 0
0.8172110 0.0680980 -7.1419950 0 255 0
0.8173790 0.0625020 -7.1417640 0 255 0
0.8415130 0.0630880 -7.2175610 0 255 0
0.8449660 0.0529600 -7.2274300 0 255 0
0.8460720 0.0529440 -7.2323460 0 255 0
0.8148530 0.0457310 -7.1337450 0 255 0
0.8151490 0.0401460 -7.1331960 0 255 0
0.8151130 0.0345470 -7.1334710 0 255 0
0.8151980 0.0289530 -7.1334430 0 255 0
0.8125890 0.0234070 -7.1252760 0 255 0
0.8125110 0.0178090 -7.1256510 0 255 0
0.8126120 0.0066270 -7.1257670 0 255 0
0.8128280 0.0010450 -7.1254140 0 255 0
0.8456480 0.0002810 -7.2298950 0 255 0
0.8463400 -0.0100880 -7.2301650 0 255 0
0.8102900 -0.0156480 -7.1174550 0 255 0
0.8475900 -0.0207010 -7.2355970 0 255 0
0.8079050 -0.0490600 -7.1096730 0 255 0
0.8082350 -0.0602060 -7.1092120 0 255 0
0.8081550 -0.0657990 -7.1095840 0 255 0
0.8058170 -0.1047200 -7.1018580 0 255 0
0.8060710 -0.1102770 -7.1014040 0 255 0
0.8060940 -0.1158570 -7.1015200 0 255 0
0.8060360 -0.1214460 -7.1018330 0 255 0
0.8036620 -0.1379770 -7.0935150 0 255 0
0.8037620 -0.1435430 -7.0934400 0 255 0
0.8038660 -0.1491100 -7.0933550 0 255 0
0.8039740 -0.1546750 -7.0932570 0 255 0
0.8014330 -0.1823280 -7.0857010 0 255 0
0.8015130 -0.1878910 -7.0856700 0 255 0
0.7991640 -0.2098980 -7.0774900 0 255 0
0.7974570 -0.3207840 -7.0703070 0 255 0
0.7946190 -0.3371570 -7.0631730 0 255 0
0.7922740 -0.3534100 -7.0548580 0 255 0
0.7823150 -0.4182450 -7.0232180 0 255 0
0.8355070 0.1460160 -7.1996940 0 255 0
0.8228670 0.1343350 -7.1595550 0 255 0
0.8394750 0.1309590 -7.2095540 0 255 0
0.8292190 0.1196860 -7.1768610 0 255 0
0.8199100 0.1129280 -7.1486570 0 255 0
0.8233880 0.1087650 -7.1583640 0 255 0
0.8398800 0.1049450 -7.2107230 0 255 0
0.8409830 0.1049340 -7.2156210 0 255 0
0.8227920 0.1017430 -7.1567790 0 255 0
0.8414920 0.1024860 -7.2162750 0 255 0
0.8427700 0.0946760 -7.2207850 0 255 0
0.8419770 0.0790430 -7.2165660 0 255 0
0.8376520 0.0734650 -7.2025200 0 255 0
0.8422760 0.0686280 -7.2169840 0 255 0
0.8459320 0.0427530 -7.2275860 0 255 0
0.8479370 0.0166110 -7.2335200 0 255 0
0.8132190 -0.0045250 -7.1246280 0 255 0
0.8468260 -0.0045920 -7.2296930 0 255 0
0.8135080 -0.0101010 -7.1240950 0 255 0
0.8487700 -0.0255820 -7.2353950 0 255 0
0.8488680 -0.0415420 -7.2361870 0 255 0
0.8482150 -0.0680670 -7.2324390 0 255 0
0.8086470 -0.0713430 -7.1085500 0 255 0
0.8065850 -0.1269690 -7.1006570 0 255 0
0.8043280 -0.1602100 -7.0925600 0 255 0
0.8020700 -0.1933910 -7.0844750 0 255 0
0.7996070 -0.2265400 -7.0768980 0 255 0
0.7995640 -0.2321150 -7.0771660 0 255 0
0.7998170 -0.2376460 -7.0767110 0 255 0
0.7999130 -0.2431990 -7.0766380 0 255 0
0.8000310 -0.2765900 -7.0773120 0 255 0
0.7953090 -0.3425850 -7.0616510 0 255 0
0.7926780 -0.3588850 -7.0540330 0 255 0
0.7877590 -0.3857890 -7.0378790 0 255 0
0.8357350 0.2087780 -7.1987750 0 255 0
0.8406500 0.1556390 -7.2136000 0 255 0
0.8281800 0.1144880 -7.1722010 0 255 0
0.8257340 0.1129910 -7.1640060 0 255 0
0.8254880 0.1091050 -7.1628640 0 255 0
0.8404980 0.0999220 -7.2107420 0 255 0
0.8407720 0.0947750 -7.2108990 0 255 0
0.8206680 0.0905300 -7.1475320 0 255 0
0.8405490 0.0894470 -7.2112560 0 255 0
0.8206360 0.0849250 -7.1478000 0 255 0
0.8396580 0.0790310 -7.2068000 0 255 0
0.8209290 0.0737260 -7.1474480 0 255 0
0.8411150 0.0686230 -7.2120980 0 255 0
0.8182830 0.0569340 -7.1397090 0 255 0
0.8457270 0.0585090 -7.2268480 0 255 0
0.8450330 0.0481260 -7.2223130 0 255 0
0.8465840 0.0324220 -7.2278700 0 255 0
0.8468550 0.0272310 -7.2280340 0 255 0
0.8475190 -0.0149650 -7.2299620 0 255 0
0.8111100 -0.0211830 -7.1156130 0 255 0
0.8494650 -0.0359800 -7.2356670 0 255 0
0.8112400 -0.0379400 -7.1158280 0 255 0
0.8114460 -0.0435130 -7.1154970 0 255 0
0.8117530 -0.0546670 -7.1150930 0 255 0
0.8483370 -0.0626680 -7.2321130 0 255 0
0.8091380 -0.0768850 -7.1075150 0 255 0
0.8092210 -0.0824620 -7.1074860 0 255 0
0.8092020 -0.0880490 -7.1077070 0 255 0
0.8510750 -0.0942340 -7.2380740 0 255 0
0.8047550 -0.1657350 -7.0916810 0 255 0
0.8022280 -0.1989420 -7.0842530 0 255 0
0.7998750 -0.2153660 -7.0759190 0 255 0
0.7999770 -0.2209190 -7.0758330 0 255 0
0.8002200 -0.2709900 -7.0766920 0 255 0
0.8002940 -0.2821140 -7.0768320 0 255 0
0.8003280 -0.2876760 -7.0769070 0 255 0
0.7981480 -0.3262200 -7.0687830 0 255 0
0.7909440 -0.3805230 -7.0444170 0 255 0
0.7882440 -0.3912310 -7.0368590 0 255 0
0.7881150 -0.3968010 -7.0373200 0 255 0
0.7857040 -0.4074250 -7.0290830 0 255 0
0.8355100 0.1464020 -7.1943710 0 255 0
0.8305230 0.1149120 -7.1766010 0 255 0
0.8272200 0.1093160 -7.1675070 0 255 0
0.8262300 0.1073880 -7.1629590 0 255 0
0.8232470 0.0934000 -7.1538370 0 255 0
0.8236660 0.0849390 -7.1551700 0 255 0
0.8212500 0.0793390 -7.1464610 0 255 0
0.8237530 0.0793330 -7.1551420 0 255 0
0.8211790 0.0681300 -7.1470140 0 255 0
0.8403420 0.0687570 -7.2070570 0 255 0
0.8423430 0.0638000 -7.2118730 0 255 0
0.8448980 0.0586240 -7.2218240 0 255 0
0.8188790 0.0513570 -7.1384150 0 255 0
0.8442030 0.0482430 -7.2172870 0 255 0
0.8191130 0.0401680 -7.1382070 0 255 0
0.8468300 0.0377980 -7.2274970 0 255 0
0.8188310 0.0345560 -7.1390900 0 255 0
0.8191210 0.0289690 -7.1385550 0 255 0
0.8165090 0.0234210 -7.1303820 0 255 0
0.8473670 0.0221260 -7.2281010 0 255 0
0.8164720 0.0178230 -7.1306560 0 255 0
0.8476590 0.0169380 -7.2282570 0 255 0
0.8164750 0.0122280 -7.1308290 0 255 0
0.8462710 -0.0043630 -7.2245370 0 255 0
0.8468940 -0.0094430 -7.2245580 0 255 0
0.8118720 -0.0267180 -7.1139130 0 255 0
0.8500610 -0.0304230 -7.2351470 0 255 0
0.8119640 -0.0658270 -7.1149260 0 255 0
0.8120030 -0.0714120 -7.1150050 0 255 0
0.8095030 -0.0936060 -7.1071390 0 255 0
0.8502370 -0.0940940 -7.2330030 0 255 0
0.8098780 -0.0991540 -7.1063920 0 255 0
0.8074840 -0.1324520 -7.0986220 0 255 0
0.8052820 -0.1712450 -7.0905590 0 255 0
0.8027750 -0.2044390 -7.0830810 0 255 0
0.8004010 -0.2486920 -7.0756110 0 255 0
0.8007520 -0.2542030 -7.0749150 0 255 0
0.8007730 -0.2653330 -7.0751840 0 255 0
0.7956040 -0.2758400 -7.0590590 0 255 0
0.7959990 -0.3480100 -7.0601300 0 255 0
0.7935720 -0.3642600 -7.0520200 0 255 0
0.7862700 -0.4128400 -7.0278690 0 255 0
0.8322590 0.1151240 -7.1812410 0 255 0
0.8297620 0.1098100 -7.1718310 0 255 0
0.8250020 0.1040970 -7.1579810 0 255 0
0.8256160 0.0990760 -7.1579890 0 255 0
0.8402230 0.1002250 -7.2055130 0 255 0
0.8241030 0.0961630 -7.1537000 0 255 0
0.8256770 0.0938570 -7.1582130 0 255 0
0.8267840 0.0849540 -7.1623380 0 255 0
0.8407350 0.0846680 -7.2061030 0 255 0
0.8268710 0.0793450 -7.1623110 0 255 0
0.8396480 0.0794350 -7.2014590 0 255 0
0.8242480 0.0737400 -7.1540970 0 255 0
0.8380680 0.0740230 -7.1970090 0 255 0
0.8393170 0.0688000 -7.2021190 0 255 0
0.8460710 0.0537770 -7.2216220 0 255 0
0.8190970 0.0457670 -7.1380620 0 255 0
0.8459310 0.0431730 -7.2222220 0 255 0
0.8461650 0.0379770 -7.2224000 0 255 0
0.8172280 0.0350630 -7.1315740 0 255 0
0.8196140 0.0233940 -7.1375140 0 255 0
0.8197000 0.0177990 -7.1374860 0 255 0
0.8168520 0.0066530 -7.1300790 0 255 0
0.8473110 0.0013330 -7.2238440 0 255 0
0.8144910 -0.0156300 -7.1218470 0 255 0
0.8486980 -0.0198430 -7.2297600 0 255 0
0.8493930 -0.0302310 -7.2300290 0 255 0
0.8119910 -0.0322970 -7.1137990 0 255 0
0.8495330 -0.0408410 -7.2305230 0 255 0
0.8123700 -0.0490300 -7.1133980 0 255 0
0.8125950 -0.0601860 -7.1131950 0 255 0
0.8103700 -0.1214400 -7.1058700 0 255 0
0.8079740 -0.1379770 -7.0975890 0 255 0
0.8081130 -0.1435400 -7.0974160 0 255 0
0.8081360 -0.1491170 -7.0975290 0 255 0
0.8056590 -0.1767730 -7.0898010 0 255 0
0.8011030 -0.2597140 -7.0742200 0 255 0
0.7939750 -0.3697310 -7.0511950 0 255 0
0.7892120 -0.4021090 -7.0348220 0 255 0
0.7842300 -0.4233550 -7.0187660 0 255 0
0.7764340 -0.4441330 -6.9953390 0 255 0
0.7767130 -0.4495840 -6.9948190 0 255 0
0.8319940 0.1101960 -7.1762760 0 255 0
0.8287510 0.1046180 -7.1671570 0 255 0
0.8278230 0.0994530 -7.1624480 0 255 0
0.8274700 0.0940890 -7.1628350 0 255 0
0.8489180 0.0814120 -7.2282730 0 255 0
0.8343430 0.0739170 -7.1824670 0 255 0
0.8248810 0.0677280 -7.1544300 0 255 0
0.8222450 0.0625640 -7.1445510 0 255 0
0.8449650 0.0537930 -7.2167110 0 255 0
0.8451010 0.0432910 -7.2171960 0 255 0
0.8477940 0.0192670 -7.2253080 0 255 0
0.8201930 0.0122260 -7.1364450 0 255 0
0.8488350 0.0120730 -7.2280550 0 255 0
0.8463960 0.0072840 -7.2201370 0 255 0
0.8173260 0.0010850 -7.1290880 0 255 0
0.8177210 -0.0044860 -7.1282900 0 255 0
0.8466160 -0.0091100 -7.2192920 0 255 0
0.8481840 -0.0142770 -7.2243100 0 255 0
0.8481420 -0.0196110 -7.2246010 0 255 0
0.8502960 -0.0352190 -7.2299390 0 255 0
0.8151540 -0.0379480 -7.1209240 0 255 0
0.8491180 -0.0726160 -7.2269470 0 255 0
0.8130480 -0.0769080 -7.1126040 0 255 0
0.8526500 -0.0989910 -7.2377110 0 255 0
0.8105430 -0.1046720 -7.1049280 0 255 0
0.8107780 -0.1158140 -7.1046960 0 255 0
0.8082760 -0.1546790 -7.0973550 0 255 0
0.8059910 -0.1823050 -7.0891550 0 255 0
0.8061910 -0.1878530 -7.0888300 0 255 0
0.8036710 -0.2098850 -7.0810550 0 255 0
0.8015730 -0.2930290 -7.0740290 0 255 0
0.7818750 -0.4283970 -7.0103030 0 255 0
0.7795230 -0.4334280 -7.0018550 0 255 0
0.8361780 0.2111240 -7.1903940 0 255 0
0.8314380 0.1230090 -7.1731220 0 255 0
0.8277610 0.1046680 -7.1622230 0 255 0
0.8294760 0.0996370 -7.1671230 0 255 0
0.8389110 0.0953230 -7.1956260 0 255 0
0.8267070 0.0889780 -7.1580580 0 255 0
0.8303000 0.0849800 -7.1685300 0 255 0
0.8346930 0.0792960 -7.1820710 0 255 0
0.8381350 0.0691980 -7.1919010 0 255 0
0.8423430 0.0642130 -7.2065220 0 255 0
0.8426870 0.0590700 -7.2066500 0 255 0
0.8424770 0.0537260 -7.2070000 0 255 0
0.8428210 0.0485780 -7.2071290 0 255 0
0.8429670 0.0433550 -7.2073360 0 255 0
0.8459990 0.0383380 -7.2171040 0 255 0
0.8227570 0.0345740 -7.1442070 0 255 0
0.8474510 0.0331620 -7.2221530 0 255 0
0.8229010 0.0289780 -7.1440330 0 255 0
0.8479350 0.0280520 -7.2222290 0 255 0
0.8230300 0.0233820 -7.1438960 0 255 0
0.8231160 0.0177840 -7.1438670 0 255 0
0.8182430 -0.0100470 -7.1271790 0 255 0
0.8475170 -0.0140870 -7.2192000 0 255 0
0.8155540 -0.0211490 -7.1194000 0 255 0
0.8154780 -0.0323340 -7.1199460 0 255 0
0.8156460 -0.0435020 -7.1198870 0 255 0
0.8498830 -0.0669690 -7.2263630 0 255 0
0.8133360 -0.0824690 -7.1120710 0 255 0
0.8135200 -0.0880380 -7.1117900 0 255 0
0.8523130 -0.0986550 -7.2324370 0 255 0
0.8109750 -0.1102110 -7.1040380 0 255 0
0.8111040 -0.1269440 -7.1042340 0 255 0
0.8089510 -0.1601760 -7.0958650 0 255 0
0.8064940 -0.1933860 -7.0882540 0 255 0
0.8066080 -0.1989450 -7.0881400 0 255 0
0.8042180 -0.2153770 -7.0798840 0 255 0
0.8043750 -0.2209220 -7.0796630 0 255 0
0.8043180 -0.2264990 -7.0799640 0 255 0
0.8020590 -0.2985100 -7.0730010 0 255 0
0.8021360 -0.3040600 -7.0729690 0 255 0
0.8000620 -0.3314240 -7.0642790 0 255 0
0.7975050 -0.3532730 -7.0566270 0 255 0
0.7873250 -0.4181440 -7.0254760 0 255 0
0.8456390 0.1097120 -7.2155440 0 255 0
0.8333220 0.1054290 -7.1760060 0 255 0
0.8319580 0.1001120 -7.1714730 0 255 0
0.8377440 0.1005520 -7.1904960 0 255 0
0.8322980 0.0949930 -7.1715910 0 255 0
0.8302020 0.0946530 -7.1670890 0 255 0
