0.4421120 -0.6182280 -6.0410010 255 0 0
0.4441680 -0.6534140 -6.0483310 255 0 0
0.4461530 -0.6589720 -6.0550630 255 0 0
1.0053630 -0.5658090 -7.8397060 255 0 0
0.7137140 -0.5120980 -6.9075980 255 0 0
0.7086780 -0.5220250 -6.8921920 255 0 0
0.7079480 -0.5280750 -6.8889520 255 0 0
0.7061490 -0.5327570 -6.8849430 255 0 0
0.9968830 -0.6055400 -7.8130260 255 0 0
1.0275060 -0.6133950 -7.9108110 255 0 0
0.6988020 -0.5526290 -6.8614690 255 0 0
1.0304440 -0.6254180 -7.9200580 255 0 0
0.9939680 -0.6228790 -7.8037740 255 0 0
0.5259190 -0.5258440 -6.3079660 255 0 0
1.0328500 -0.6333100 -7.9277430 255 0 0
0.5306590 -0.5278190 -6.3233040 255 0 0
0.9945520 -0.6308430 -7.8060810 255 0 0
0.6934100 -0.5718910 -6.8435330 255 0 0
0.5026650 -0.5401410 -6.2332930 255 0 0
0.9927290 -0.6594600 -7.8001590 255 0 0
0.4818660 -0.5613500 -6.1660050 255 0 0
0.9956460 -0.6854300 -7.8079210 255 0 0
0.6503620 -0.6138700 -6.7063660 255 0 0
0.6471990 -0.6192280 -6.6944590 255 0 0
0.6330380 -0.6219970 -6.6505620 255 0 0
0.6135800 -0.6183030 -6.5888040 255 0 0
0.4630550 -0.5815270 -6.1072660 255 0 0
0.4579870 -0.5878850 -6.0908270 255 0 0
0.4421930 -0.6231500 -6.0409790 255 0 0
0.4422750 -0.6280710 -6.0409570 255 0 0
0.4423560 -0.6329920 -6.0409360 255 0 0
0.4445010 -0.6483770 -6.0476110 255 0 0
1.0149890 -0.8204180 -7.8707310 255 0 0
1.0040150 -0.5726460 -7.8331260 255 0 0
0.7093340 -0.5273240 -6.8908290 255 0 0
0.7084560 -0.5322970 -6.8896060 255 0 0
1.0254680 -0.6106560 -7.9005580 255 0 0
0.5238290 -0.5259880 -6.2991550 255 0 0
1.0356990 -0.6556630 -7.9341510 255 0 0
0.5005310 -0.5400290 -6.2243780 255 0 0
0.6493910 -0.6179230 -6.7007300 255 0 0
0.6360640 -0.6224640 -6.6568990 255 0 0
0.6166240 -0.6187350 -6.5950990 255 0 0
0.6380220 -0.6242980 -6.6640120 255 0 0
0.6403560 -0.6256540 -6.6708580 255 0 0
0.4601310 -0.5856990 -6.0944340 255 0 0
0.6253560 -0.6308830 -6.6232370 255 0 0
0.4523790 -0.5936270 -6.0714280 255 0 0
0.4448330 -0.6433420 -6.0468900 255 0 0
0.4471060 -0.6537600 -6.0532250 255 0 0
1.0119060 -0.8273690 -7.8580790 255 0 0
0.4489680 -0.6643080 -6.0603140 255 0 0
1.0079790 -0.8310110 -7.8468790 255 0 0
0.4511660 -0.6698230 -6.0666920 255 0 0
0.4531670 -0.6735410 -6.0733230 255 0 0
0.4584770 -0.6800820 -6.0903640 255 0 0
1.0221810 -0.5775560 -7.8895400 255 0 0
0.7096450 -0.5280950 -6.8906310 255 0 0
0.7078640 -0.5336830 -6.8844100 255 0 0
1.0005950 -0.5939240 -7.8200920 255 0 0
0.7057050 -0.5395370 -6.8787160 255 0 0
0.9977640 -0.6112580 -7.8105710 255 0 0
0.7003510 -0.5538150 -6.8614950 255 0 0
1.0312620 -0.6327870 -7.9169590 255 0 0
0.5221330 -0.5272590 -6.2909360 255 0 0
0.5229460 -0.5299480 -6.2939260 255 0 0
0.4987110 -0.5409170 -6.2163990 255 0 0
1.0363480 -0.6611220 -7.9343280 255 0 0
0.9947980 -0.6614570 -7.8020610 255 0 0
0.6769240 -0.6007550 -6.7860620 255 0 0
0.4808510 -0.5647830 -6.1604260 255 0 0
0.9966890 -0.6870840 -7.8063270 255 0 0
0.6483170 -0.6216610 -6.6947860 255 0 0
0.5889920 -0.6084270 -6.5058450 255 0 0
0.6455310 -0.6230960 -6.6851130 255 0 0
0.6433050 -0.6262250 -6.6772630 255 0 0
0.4622690 -0.5864910 -6.1003890 255 0 0
0.4472310 -0.6487780 -6.0528750 255 0 0
1.0234760 -0.8178950 -7.8912510 255 0 0
0.4554570 -0.6738580 -6.0784190 255 0 0
0.7123570 -0.5167740 -6.8972220 255 0 0
1.0045600 -0.5800530 -7.8286640 255 0 0
1.0039040 -0.5824210 -7.8283770 255 0 0
1.0258780 -0.5884240 -7.8979030 255 0 0
1.0264030 -0.5988650 -7.8996250 255 0 0
0.7085210 -0.5392650 -6.8852830 255 0 0
0.7042690 -0.5448770 -6.8720220 255 0 0
1.0300970 -0.6269400 -7.9112420 255 0 0
0.5208600 -0.5300880 -6.2851360 255 0 0
0.9965740 -0.6367280 -7.8047340 255 0 0
0.6903430 -0.5798540 -6.8266490 255 0 0
0.6918520 -0.5815890 -6.8301280 255 0 0
0.4976020 -0.5440840 -6.2105240 255 0 0
0.6633030 -0.5901810 -6.7399770 255 0 0
0.9896710 -0.6823900 -7.7824170 255 0 0
0.4801280 -0.5691660 -6.1557090 255 0 0
0.6464130 -0.6228950 -6.6863770 255 0 0
0.6022910 -0.6123460 -6.5446450 255 0 0
0.6221980 -0.6306090 -6.6087260 255 0 0
0.4521580 -0.5987130 -6.0662890 255 0 0
0.4477410 -0.6041010 -6.0508420 255 0 0
0.4455050 -0.6085450 -6.0448170 255 0 0
0.4456670 -0.6183940 -6.0447730 255 0 0
0.4457480 -0.6233170 -6.0447510 255 0 0
0.4458300 -0.6282400 -6.0447290 255 0 0
1.0223080 -0.8178030 -7.8860120 255 0 0
1.0195490 -0.8190020 -7.8760990 255 0 0
1.0265990 -0.8242660 -7.8992700 255 0 0
1.0076970 -0.5714730 -7.8369470 255 0 0
0.7128470 -0.5221190 -6.8962380 255 0 0
0.5432010 -0.5189170 -6.3545200 255 0 0
0.9986450 -0.6169730 -7.8081170 255 0 0
1.0360510 -0.6374600 -7.9265040 255 0 0
1.0357560 -0.6433900 -7.9272040 255 0 0
0.5195280 -0.5326110 -6.2785820 255 0 0
0.9975700 -0.6434290 -7.8051880 255 0 0
0.6893870 -0.5840350 -6.8210260 255 0 0
0.4964920 -0.5472490 -6.2046530 255 0 0
0.6671860 -0.5899390 -6.7492380 255 0 0
0.6858650 -0.5971540 -6.8094480 255 0 0
0.6619350 -0.5930710 -6.7331520 255 0 0
0.6760400 -0.5975280 -6.7780700 255 0 0
0.6801260 -0.6010100 -6.7923090 255 0 0
0.9928810 -0.6829280 -7.7892370 255 0 0
1.0012200 -0.6898390 -7.8170330 255 0 0
0.4772260 -0.5664150 -6.1445540 255 0 0
0.9933000 -0.6901120 -7.7906920 255 0 0
0.6059910 -0.6038830 -6.5553420 255 0 0
0.6426320 -0.6237090 -6.6709800 255 0 0
0.6314780 -0.6257030 -6.6353680 255 0 0
0.4573160 -0.5894560 -6.0800620 255 0 0
0.4573900 -0.5925520 -6.0806800 255 0 0
0.4518910 -0.6002340 -6.0636430 255 0 0
0.4500620 -0.6045820 -6.0568540 255 0 0
0.4501430 -0.6095140 -6.0568320 255 0 0
0.4458810 -0.6133930 -6.0442650 255 0 0
0.4459110 -0.6331630 -6.0447070 255 0 0
0.4459930 -0.6380840 -6.0446850 255 0 0
0.4503350 -0.6589780 -6.0577280 255 0 0
0.4599870 -0.6692800 -6.0885550 255 0 0
0.4599230 -0.6745210 -6.0887440 255 0 0
1.0062580 -0.8413320 -7.8318940 255 0 0
1.0103230 -0.5649400 -7.8434270 255 0 0
0.7182240 -0.5121070 -6.9108910 255 0 0
1.0084070 -0.5708930 -7.8365510 255 0 0
0.7155330 -0.5171170 -6.9035590 255 0 0
0.7133360 -0.5274610 -6.8952550 255 0 0
1.0277540 -0.5979960 -7.8982500 255 0 0
1.0018850 -0.5995230 -7.8164270 255 0 0
0.7078520 -0.5448450 -6.8771030 255 0 0
0.7049890 -0.5473930 -6.8681790 255 0 0
0.5487230 -0.5174780 -6.3702550 255 0 0
0.5412420 -0.5195480 -6.3460860 255 0 0
1.0318220 -0.6298460 -7.9107830 255 0 0
0.9998120 -0.6297350 -7.8092950 255 0 0
0.5178970 -0.5341790 -6.2711460 255 0 0
1.0365690 -0.6487580 -7.9272890 255 0 0
0.6887780 -0.5892330 -6.8164380 255 0 0
0.4953080 -0.5501670 -6.1985630 255 0 0
0.6831920 -0.6014400 -6.7986610 255 0 0
0.6608010 -0.5966550 -6.7270280 255 0 0
0.4763590 -0.5703150 -6.1394180 255 0 0
0.6212110 -0.6275480 -6.6009600 255 0 0
0.4570270 -0.5952330 -6.0766480 255 0 0
0.4482350 -0.6089220 -6.0500770 255 0 0
0.4483910 -0.6435150 -6.0506660 255 0 0
1.0227810 -0.8194880 -7.8828750 255 0 0
1.0254840 -0.8207340 -7.8902190 255 0 0
1.0170270 -0.8199060 -7.8646460 255 0 0
1.0420540 -0.8329180 -7.9443040 255 0 0
0.4525330 -0.6644870 -6.0641000 255 0 0
0.4585210 -0.6687740 -6.0825960 255 0 0
0.4624410 -0.6800140 -6.0937460 255 0 0
1.0228280 -0.5697890 -7.8809110 255 0 0
1.0273020 -0.5753110 -7.8941010 255 0 0
1.0074940 -0.5766620 -7.8317700 255 0 0
1.0266410 -0.5864040 -7.8919990 255 0 0
0.7137630 -0.5276820 -6.8949770 255 0 0
0.7120930 -0.5331920 -6.8885980 255 0 0
1.0304960 -0.6145440 -7.9041400 255 0 0
0.5398950 -0.5220910 -6.3394710 255 0 0
0.9995240 -0.6226820 -7.8056650 255 0 0
0.5353510 -0.5273340 -6.3242780 255 0 0
0.5167170 -0.5371740 -6.2650480 255 0 0
0.6935220 -0.5801880 -6.8291830 255 0 0
0.9999830 -0.6537180 -7.8080200 255 0 0
1.0019180 -0.6580540 -7.8144310 255 0 0
0.6596710 -0.6002470 -6.7209180 255 0 0
0.6019370 -0.6030990 -6.5381170 255 0 0
0.4753680 -0.5738070 -6.1339170 255 0 0
0.5933980 -0.6071180 -6.5111630 255 0 0
0.4659580 -0.5862300 -6.1046090 255 0 0
0.6257970 -0.6303420 -6.6146420 255 0 0
0.4604040 -0.5917850 -6.0852170 255 0 0
0.4553840 -0.5978500 -6.0707910 255 0 0
0.4527170 -0.6049790 -6.0622770 255 0 0
0.4529390 -0.6098770 -6.0619990 255 0 0
1.0382210 -0.8281220 -7.9278470 255 0 0
0.4553000 -0.6698460 -6.0694590 255 0 0
1.0220640 -0.5695230 -7.8755290 255 0 0
0.7190650 -0.5188840 -6.9091760 255 0 0
1.0056010 -0.5879030 -7.8234960 255 0 0
0.7103380 -0.5387600 -6.8823420 255 0 0
1.0289910 -0.6031290 -7.8980980 255 0 0
0.5515430 -0.5138120 -6.3758200 255 0 0
1.0292260 -0.6145250 -7.8990210 255 0 0
0.5497320 -0.5174050 -6.3692540 255 0 0
0.5380920 -0.5231960 -6.3315090 255 0 0
0.7025640 -0.5593700 -6.8572650 255 0 0
0.5312960 -0.5270490 -6.3108860 255 0 0
0.6965010 -0.5751360 -6.8367840 255 0 0
0.5146400 -0.5373070 -6.2563010 255 0 0
1.0380880 -0.6537660 -7.9269820 255 0 0
1.0384060 -0.6593910 -7.9273420 255 0 0
0.6733210 -0.5923070 -6.7628300 255 0 0
0.4942250 -0.5534090 -6.1927740 255 0 0
1.0012590 -0.6705080 -7.8075270 255 0 0
0.9968630 -0.6828440 -7.7947080 255 0 0
0.6587420 -0.6044350 -6.7154060 255 0 0
0.6046260 -0.6039620 -6.5446240 255 0 0
0.6069050 -0.6053470 -6.5514210 255 0 0
0.4743360 -0.5771600 -6.1282970 255 0 0
0.6289850 -0.6306000 -6.6208520 255 0 0
0.4629490 -0.5901680 -6.0921010 255 0 0
0.4491420 -0.6185810 -6.0486960 255 0 0
0.4493050 -0.6234840 -6.0485250 255 0 0
0.4493870 -0.6284090 -6.0485030 255 0 0
0.4494680 -0.6333330 -6.0484810 255 0 0
0.4493430 -0.6383110 -6.0488310 255 0 0
0.4512870 -0.6537660 -6.0558880 255 0 0
1.0311580 -0.8228490 -7.9046340 255 0 0
0.4534850 -0.6592700 -6.0622570 255 0 0
1.0110140 -0.8350360 -7.8398710 255 0 0
1.0146260 -0.5645810 -7.8483120 255 0 0
1.0106120 -0.5757650 -7.8358910 255 0 0
1.0249380 -0.5802140 -7.8808010 255 0 0
1.0062350 -0.5937090 -7.8217600 255 0 0
1.0283930 -0.6027730 -7.8926130 255 0 0
1.0032350 -0.6110920 -7.8127200 255 0 0
0.5369000 -0.5262130 -6.3253580 255 0 0
1.0342550 -0.6363750 -7.9100100 255 0 0
0.5110770 -0.5326800 -6.2431670 255 0 0
1.0029670 -0.6497080 -7.8103730 255 0 0
0.4931430 -0.5566480 -6.1869890 255 0 0
0.6115380 -0.6019890 -6.5626990 255 0 0
0.5980990 -0.6080810 -6.5203360 255 0 0
0.4726030 -0.5782020 -6.1206090 255 0 0
0.6479410 -0.6235460 -6.6803870 255 0 0
0.4554690 -0.6027960 -6.0656010 255 0 0
1.0343930 -0.8233350 -7.9114180 255 0 0
1.0414590 -0.8286100 -7.9346400 255 0 0
1.0149980 -0.8312160 -7.8508430 255 0 0
0.4583050 -0.6679830 -6.0753590 255 0 0
0.4635070 -0.6745410 -6.0925180 255 0 0
0.7222370 -0.5122390 -6.9153310 255 0 0
1.0217050 -0.5690570 -7.8699300 255 0 0
0.7199570 -0.5171470 -6.9070400 255 0 0
0.7173500 -0.5221290 -6.8995250 255 0 0
1.0101300 -0.5810920 -7.8308640 255 0 0
1.0268830 -0.5856340 -7.8860620 255 0 0
0.7126630 -0.5410340 -6.8830890 255 0 0
1.0327410 -0.6191730 -7.9034340 255 0 0
1.0039100 -0.6168710 -7.8108680 255 0 0
1.0346960 -0.6303780 -7.9092360 255 0 0
0.5347970 -0.5263570 -6.3165160 255 0 0
0.7003460 -0.5708010 -6.8457490 255 0 0
1.0379300 -0.6473910 -7.9207000 255 0 0
1.0028300 -0.6423180 -7.8084030 255 0 0
0.5103480 -0.5370940 -6.2384140 255 0 0
0.6910490 -0.5892970 -6.8145820 255 0 0
1.0018850 -0.6611230 -7.8053150 255 0 0
0.6736090 -0.5913540 -6.7603770 255 0 0
0.6763810 -0.5927350 -6.7691660 255 0 0
1.0025520 -0.6769890 -7.8074610 255 0 0
0.4922810 -0.5605990 -6.1818580 255 0 0
0.6579060 -0.6088990 -6.7101710 255 0 0
0.6103520 -0.6052530 -6.5574070 255 0 0
0.4715930 -0.5816190 -6.1150590 255 0 0
0.4634380 -0.5910090 -6.0897460 255 0 0
0.4576530 -0.6024030 -6.0702830 255 0 0
0.4498660 -0.6134450 -6.0472700 255 0 0
1.0190960 -0.8270280 -7.8613820 255 0 0
0.4565950 -0.6645280 -6.0669920 255 0 0
0.4640390 -0.6691920 -6.0918440 255 0 0
1.0278940 -0.5676380 -7.8862180 255 0 0
1.0213490 -0.5685890 -7.8643310 255 0 0
1.0132190 -0.5701380 -7.8405290 255 0 0
1.0244320 -0.5740830 -7.8747600 255 0 0
0.7206680 -0.5178250 -6.9069240 255 0 0
0.7222040 -0.5218790 -6.9128390 255 0 0
0.7204460 -0.5224950 -6.9060540 255 0 0
1.0265650 -0.5851440 -7.8804350 255 0 0
0.7179680 -0.5272080 -6.8992030 255 0 0
0.7177560 -0.5274920 -6.8987310 255 0 0
1.0293930 -0.5965210 -7.8915410 255 0 0
1.0071000 -0.5994400 -7.8193430 255 0 0
0.5323940 -0.5255450 -6.3067930 255 0 0
1.0389300 -0.6411020 -7.9196110 255 0 0
1.0026870 -0.6349410 -7.8064460 255 0 0
1.0391690 -0.6525400 -7.9205470 255 0 0
0.5086320 -0.5408050 -6.2326910 255 0 0
1.0046730 -0.6553910 -7.8112640 255 0 0
0.6675370 -0.5883170 -6.7388890 255 0 0
0.4906030 -0.5618970 -6.1743180 255 0 0
0.9987310 -0.6888600 -7.7936280 255 0 0
0.6570230 -0.6132230 -6.7048010 255 0 0
1.0086810 -0.7018050 -7.8235760 255 0 0
0.4701510 -0.5836060 -6.1082380 255 0 0
0.6215990 -0.6227410 -6.5922330 255 0 0
0.4592200 -0.5967120 -6.0751820 255 0 0
0.4546140 -0.6143940 -6.0591020 255 0 0
0.4527770 -0.6434640 -6.0529570 255 0 0
0.4524450 -0.6485010 -6.0536780 255 0 0
1.0218790 -0.8221220 -7.8656910 255 0 0
0.4568440 -0.6595050 -6.0664170 255 0 0
0.4588870 -0.6700210 -6.0732190 255 0 0
1.0201930 -0.5685170 -7.8591670 255 0 0
1.0285680 -0.5734720 -7.8843340 255 0 0
0.7231400 -0.5174890 -6.9133870 255 0 0
1.0203090 -0.5741900 -7.8596160 255 0 0
0.7166830 -0.5324440 -6.8922840 255 0 0
0.7147550 -0.5381340 -6.8862670 255 0 0
1.0303510 -0.6075430 -7.8920650 255 0 0
0.5546880 -0.5138420 -6.3759810 255 0 0
1.0324220 -0.6186740 -7.8977930 255 0 0
1.0045840 -0.6226470 -7.8090160 255 0 0
1.0340970 -0.6300180 -7.9037440 255 0 0
0.5299960 -0.5247350 -6.2970900 255 0 0
1.0344960 -0.6355860 -7.9040530 255 0 0
0.5090250 -0.5396030 -6.2319060 255 0 0
1.0053100 -0.6628500 -7.8106720 255 0 0
0.4887070 -0.5624800 -6.1661410 255 0 0
1.0083270 -0.6895030 -7.8202960 255 0 0
0.6560110 -0.6171580 -6.6990490 255 0 0
0.5986350 -0.6047590 -6.5159080 255 0 0
0.4666360 -0.5899080 -6.0963170 255 0 0
0.4618300 -0.5961260 -6.0797870 255 0 0
0.4569860 -0.6049590 -6.0647950 255 0 0
0.4527030 -0.6137980 -6.0523460 255 0 0
0.4527840 -0.6187250 -6.0523230 255 0 0
0.4530420 -0.6236040 -6.0519830 255 0 0
0.4529460 -0.6285770 -6.0522790 255 0 0
0.4530270 -0.6335030 -6.0522570 255 0 0
0.4531080 -0.6384270 -6.0522350 255 0 0
0.4552620 -0.6538280 -6.0589250 255 0 0
0.4666550 -0.6798890 -6.0968690 255 0 0
1.0175690 -0.5709590 -7.8466670 255 0 0
1.0229440 -0.5735300 -7.8639820 255 0 0
1.0151270 -0.5741760 -7.8392570 255 0 0
0.7232040 -0.5216770 -6.9107140 255 0 0
1.0138010 -0.5799190 -7.8346880 255 0 0
1.0122610 -0.5857710 -7.8302280 255 0 0
1.0292360 -0.5902030 -7.8852990 255 0 0
1.0108720 -0.5878020 -7.8262500 255 0 0
0.7186580 -0.5327270 -6.8967960 255 0 0
0.7133430 -0.5434560 -6.8795360 255 0 0
1.0080730 -0.6051300 -7.8166020 255 0 0
1.0318050 -0.6125670 -7.8917920 255 0 0
0.7077220 -0.5515780 -6.8624460 255 0 0
0.5509720 -0.5202090 -6.3620740 255 0 0
1.0350970 -0.6237450 -7.9026650 255 0 0
0.5279040 -0.5248800 -6.2882970 255 0 0
0.7051410 -0.5639650 -6.8519850 255 0 0
1.0049860 -0.6285080 -7.8079680 255 0 0
0.6984820 -0.5763770 -6.8320680 255 0 0
1.0403270 -0.6577300 -7.9204400 255 0 0
0.5072680 -0.5407190 -6.2241230 255 0 0
0.4878660 -0.5664840 -6.1610770 255 0 0
0.6124480 -0.6037580 -6.5585460 255 0 0
0.6550230 -0.6211590 -6.6933660 255 0 0
0.4689690 -0.5864470 -6.1021870 255 0 0
0.4577140 -0.6493580 -6.0645950 255 0 0
0.4575890 -0.6543450 -6.0649460 255 0 0
1.0472290 -0.8371020 -7.9410740 255 0 0
1.0135360 -0.8406990 -7.8348450 255 0 0
1.0173760 -0.5698930 -7.8456720 255 0 0
1.0181440 -0.5716730 -7.8483430 255 0 0
1.0303740 -0.5885140 -7.8853270 255 0 0
1.0309030 -0.5989460 -7.8870350 255 0 0
0.7150430 -0.5438800 -6.8814800 255 0 0
1.0343140 -0.6234790 -7.8972800 255 0 0
0.5267190 -0.5278820 -6.2821870 255 0 0
1.0390100 -0.6461700 -7.9142730 255 0 0
0.6971750 -0.5795430 -6.8254070 255 0 0
0.5059360 -0.5431860 -6.2175960 255 0 0
0.6701540 -0.5900750 -6.7389470 255 0 0
1.0066650 -0.6692780 -7.8104980 255 0 0
0.4866740 -0.5693450 -6.1549820 255 0 0
0.6139530 -0.6006590 -6.5600390 255 0 0
0.6019720 -0.6047980 -6.5219570 255 0 0
0.6535160 -0.6236010 -6.6861490 255 0 0
0.4613040 -0.6013460 -6.0747070 255 0 0
1.0258170 -0.8215940 -7.8717140 255 0 0
1.0284750 -0.8229030 -7.8790980 255 0 0
0.4600000 -0.6597960 -6.0709530 255 0 0
0.4607400 -0.6622100 -6.0727250 255 0 0
0.4600810 -0.6647300 -6.0709310 255 0 0
1.0177470 -0.8361520 -7.8449340 255 0 0
0.4679690 -0.6743580 -6.0953820 255 0 0
1.0191120 -0.5677650 -7.8481780 255 0 0
1.0273640 -0.5840960 -7.8742010 255 0 0
0.7224310 -0.5265520 -6.9030690 255 0 0
1.0117490 -0.5935310 -7.8237880 255 0 0
0.7117860 -0.5466620 -6.8707830 255 0 0
1.0086250 -0.6109510 -7.8151100 255 0 0
1.0332220 -0.6176100 -7.8915410 255 0 0
0.5497020 -0.5186180 -6.3533420 255 0 0
1.0346210 -0.6290880 -7.8976370 255 0 0
1.0395610 -0.6401120 -7.9134360 255 0 0
1.0382910 -0.6400920 -7.9083130 255 0 0
0.6956960 -0.5821990 -6.8182330 255 0 0
0.5044680 -0.5452130 -6.2106700 255 0 0
0.6719100 -0.5871390 -6.7435460 255 0 0
0.6933850 -0.5945170 -6.8099980 255 0 0
0.6688660 -0.5932110 -6.7323690 255 0 0
1.0077160 -0.6759540 -7.8108610 255 0 0
0.6840870 -0.6019810 -6.7815100 255 0 0
1.0036390 -0.6880300 -7.7974800 255 0 0
0.4847830 -0.5699200 -6.1468300 255 0 0
0.6043660 -0.6060340 -6.5286580 255 0 0
0.6393270 -0.6200080 -6.6382340 255 0 0
0.6219860 -0.6179420 -6.5835210 255 0 0
0.6457450 -0.6248070 -6.6591450 255 0 0
0.6351220 -0.6270910 -6.6249550 255 0 0
0.4590850 -0.6067380 -6.0648590 255 0 0
0.4583040 -0.6095720 -6.0625350 255 0 0
1.0311790 -0.8241500 -7.8864400 255 0 0
1.0338840 -0.8253980 -7.8937850 255 0 0
1.0216410 -0.8326230 -7.8562630 255 0 0
0.4700590 -0.6799520 -6.1008340 255 0 0
0.7298560 -0.5126090 -6.9251790 255 0 0
0.7279970 -0.5168490 -6.9184320 255 0 0
0.7275670 -0.5175190 -6.9168720 255 0 0
1.0278050 -0.5781420 -7.8734430 255 0 0
1.0262200 -0.5782820 -7.8685110 255 0 0
1.0145590 -0.5903660 -7.8295020 255 0 0
0.7191600 -0.5375180 -6.8902090 255 0 0
1.0121530 -0.5994070 -7.8227350 255 0 0
0.5477380 -0.5192490 -6.3449090 255 0 0
1.0091760 -0.6167700 -7.8136190 255 0 0
0.5250840 -0.5294530 -6.2747470 255 0 0
1.0078580 -0.6339000 -7.8098090 255 0 0
1.0408080 -0.6510290 -7.9138110 255 0 0
1.0090890 -0.6479070 -7.8120690 255 0 0
0.6951610 -0.5876140 -6.8138680 255 0 0
0.5030020 -0.5472370 -6.2037530 255 0 0
0.6675790 -0.5963460 -6.7257960 255 0 0
0.6868110 -0.6028480 -6.7881140 255 0 0
0.4830410 -0.5709690 -6.1391190 255 0 0
0.6092460 -0.6083930 -6.5420120 255 0 0
0.6420360 -0.6208770 -6.6447880 255 0 0
0.6490230 -0.6234690 -6.6678660 255 0 0
0.6292380 -0.6319890 -6.6043920 255 0 0
0.4607600 -0.6050670 -6.0682100 255 0 0
0.4610840 -0.6064280 -6.0695720 255 0 0
0.4564280 -0.6188690 -6.0559530 255 0 0
0.4567210 -0.6237400 -6.0555490 255 0 0
0.4565070 -0.6287460 -6.0560580 255 0 0
0.4565880 -0.6336720 -6.0560360 255 0 0
0.4566690 -0.6385980 -6.0560140 255 0 0
0.4566910 -0.6435400 -6.0560980 255 0 0
0.4567280 -0.6484780 -6.0561550 255 0 0
0.4609500 -0.6545780 -6.0691070 255 0 0
1.0466300 -0.8327920 -7.9314150 255 0 0
0.4721560 -0.6803180 -6.1061620 255 0 0
1.0226190 -0.5724010 -7.8525820 255 0 0
1.0189990 -0.5729040 -7.8429630 255 0 0
1.0254900 -0.5779980 -7.8631170 255 0 0
1.0176490 -0.5786570 -7.8384100 255 0 0
0.7256830 -0.5267550 -6.9086340 255 0 0
1.0164340 -0.5843460 -7.8337820 255 0 0
1.0308720 -0.5887350 -7.8786060 255 0 0
0.7214010 -0.5316060 -6.8957910 255 0 0
1.0095710 -0.6226360 -7.8125870 255 0 0
1.0099100 -0.6285170 -7.8117210 255 0 0
0.5237510 -0.5319740 -6.2682040 255 0 0
0.7034710 -0.5739500 -6.8388970 255 0 0
1.0097210 -0.6549070 -7.8131730 255 0 0
0.5017260 -0.5498690 -6.1974010 255 0 0
0.4708400 -0.5892960 -6.0999570 255 0 0
0.4660910 -0.5947960 -6.0840990 255 0 0
0.4645250 -0.6004840 -6.0792030 255 0 0
1.0376460 -0.8251230 -7.8999980 255 0 0
1.0214910 -0.5723150 -7.8474060 255 0 0
1.0250190 -0.5775860 -7.8575830 255 0 0
1.0328250 -0.5998960 -7.8843810 255 0 0
1.0334460 -0.6053310 -7.8845640 255 0 0
0.5477490 -0.5205320 -6.3405730 255 0 0
0.5462350 -0.5213130 -6.3378420 255 0 0
0.7101160 -0.5566510 -6.8576920 255 0 0
0.5219690 -0.5330630 -6.2603390 255 0 0
1.0094950 -0.6400860 -7.8091370 255 0 0
1.0421950 -0.6560980 -7.9135760 255 0 0
1.0111470 -0.6612740 -7.8128760 255 0 0
0.5008100 -0.5536550 -6.1921090 255 0 0
0.6664060 -0.5998150 -6.7195640 255 0 0
0.4820560 -0.5744880 -6.1336410 255 0 0
0.6128290 -0.6081260 -6.5479000 255 0 0
0.6450560 -0.6213490 -6.6511220 255 0 0
0.4679660 -0.5945410 -6.0888320 255 0 0
0.4608630 -0.6115100 -6.0644380 255 0 0
0.4594160 -0.6142350 -6.0606500 255 0 0
0.4594890 -0.6439210 -6.0612620 255 0 0
0.4614880 -0.6494760 -6.0680090 255 0 0
0.4638180 -0.6599050 -6.0742960 255 0 0
1.0427970 -0.8280010 -7.9149850 255 0 0
0.4645700 -0.6621720 -6.0762270 255 0 0
1.0268650 -0.8265500 -7.8626700 255 0 0
1.0429920 -0.8367810 -7.9157610 255 0 0
0.4714350 -0.6744060 -6.0992800 255 0 0
0.4751900 -0.6804680 -6.1105190 255 0 0
1.0322700 -0.5794180 -7.8800920 255 0 0
1.0209830 -0.5776500 -7.8424030 255 0 0
1.0286490 -0.5828080 -7.8677090 255 0 0
1.0162880 -0.5936610 -7.8287170 255 0 0
1.0133170 -0.6050360 -7.8194180 255 0 0
0.5584840 -0.5147690 -6.3739460 255 0 0
1.0136460 -0.6109280 -7.8185830 255 0 0
0.5442750 -0.5219400 -6.3294320 255 0 0
1.0362680 -0.6275890 -7.8909190 255 0 0
0.7077170 -0.5685580 -6.8467060 255 0 0
0.5207880 -0.5360560 -6.2542510 255 0 0
0.6844210 -0.5971840 -6.7726040 255 0 0
0.4996420 -0.5566230 -6.1860760 255 0 0
0.6905560 -0.6024040 -6.7939460 255 0 0
0.6654150 -0.6038230 -6.7138740 255 0 0
0.6050190 -0.6067430 -6.5222820 255 0 0
0.4808690 -0.5773390 -6.1275690 255 0 0
0.6543380 -0.6233060 -6.6772690 255 0 0
0.6501670 -0.6234880 -6.6644700 255 0 0
0.6265730 -0.6267450 -6.5893670 255 0 0
0.6329720 -0.6315460 -6.6102070 255 0 0
0.4705740 -0.5939550 -6.0934340 255 0 0
0.4643050 -0.6055650 -6.0740690 255 0 0
0.4628620 -0.6112000 -6.0691510 255 0 0
0.4598640 -0.6289690 -6.0602110 255 0 0
0.4599450 -0.6338980 -6.0601880 255 0 0
0.4600260 -0.6388260 -6.0601660 255 0 0
0.4641510 -0.6498990 -6.0734430 255 0 0
0.4641080 -0.6548670 -6.0736450 255 0 0
1.0460320 -0.8284890 -7.9217700 255 0 0
0.4704030 -0.6685720 -6.0927320 255 0 0
1.0281240 -0.5824220 -7.8622040 255 0 0
1.0229770 -0.5826490 -7.8454620 255 0 0
1.0187930 -0.5889070 -7.8330230 255 0 0
1.0326660 -0.5935790 -7.8781480 255 0 0
1.0166770 -0.5995420 -7.8277040 255 0 0
1.0349210 -0.6103390 -7.8842790 255 0 0
1.0348580 -0.6161240 -7.8848360 255 0 0
0.5523580 -0.5204480 -6.3522360 255 0 0
1.0141070 -0.6167750 -7.8173540 255 0 0
0.5423180 -0.5225660 -6.3210340 255 0 0
1.0128580 -0.6329940 -7.8134710 255 0 0
1.0424440 -0.6495190 -7.9070810 255 0 0
0.5187100 -0.5361880 -6.2455220 255 0 0
0.6750720 -0.5856790 -6.7416260 255 0 0
0.6902940 -0.5915980 -6.7899060 255 0 0
1.0124560 -0.6677370 -7.8127860 255 0 0
1.0126450 -0.6751070 -7.8146730 255 0 0
0.4987680 -0.5605400 -6.1809140 255 0 0
0.6644950 -0.6080370 -6.7083920 255 0 0
0.6223730 -0.6131510 -6.5748240 255 0 0
0.4794210 -0.5793310 -6.1207340 255 0 0
0.6398840 -0.6253350 -6.6300350 255 0 0
0.4745280 -0.5890350 -6.1041750 255 0 0
1.0415410 -0.8246570 -7.9060680 255 0 0
1.0206020 -0.8407420 -7.8386100 255 0 0
1.0250810 -0.5769090 -7.8517630 255 0 0
1.0237020 -0.5769470 -7.8467240 255 0 0
1.0210610 -0.5826940 -7.8370850 255 0 0
1.0234750 -0.5850290 -7.8448560 255 0 0
1.0319480 -0.5875480 -7.8722240 255 0 0
0.7256040 -0.5311330 -6.9000150 255 0 0
1.0214740 -0.5940960 -7.8392020 255 0 0
0.7146520 -0.5504910 -6.8646590 255 0 0
1.0145010 -0.6226420 -7.8163220 255 0 0
0.5409730 -0.5251020 -6.3144440 255 0 0
0.5167840 -0.5367960 -6.2372480 255 0 0
0.4973060 -0.5625520 -6.1740230 255 0 0
1.0091600 -0.6867030 -7.8002500 255 0 0
0.6635180 -0.6120840 -6.7027480 255 0 0
0.6163440 -0.6079460 -6.5538360 255 0 0
0.4781190 -0.5817970 -6.1143310 255 0 0
0.4778500 -0.5830410 -6.1135790 255 0 0
0.4785790 -0.5843920 -6.1155370 255 0 0
0.6296190 -0.6271780 -6.5956620 255 0 0
0.4683560 -0.5993450 -6.0835900 255 0 0
0.4689280 -0.6012480 -6.0841070 255 0 0
0.4606730 -0.6188550 -6.0585000 255 0 0
0.4607100 -0.6237940 -6.0585580 255 0 0
0.4656330 -0.6567140 -6.0750060 255 0 0
1.0308690 -0.8259260 -7.8686230 255 0 0
1.0321230 -0.8307170 -7.8732960 255 0 0
1.0284240 -0.8335940 -7.8611560 255 0 0
1.0248650 -0.8360300 -7.8485010 255 0 0
0.4747770 -0.6744810 -6.1033090 255 0 0
0.7324090 -0.5174450 -6.9194010 255 0 0
0.7301200 -0.5223460 -6.9111070 255 0 0
1.0313500 -0.5871960 -7.8667580 255 0 0
1.0200270 -0.5940280 -7.8328650 255 0 0
1.0344180 -0.5984430 -7.8777120 255 0 0
1.0206510 -0.5998530 -7.8343290 255 0 0
0.7216810 -0.5435780 -6.8845580 255 0 0
1.0175510 -0.6052650 -7.8252430 255 0 0
0.7184280 -0.5463420 -6.8738390 255 0 0
0.5388680 -0.5252470 -6.3056200 255 0 0
1.0368920 -0.6323700 -7.8852890 255 0 0
1.0149690 -0.6284820 -7.8150720 255 0 0
1.0387280 -0.6378680 -7.8906180 255 0 0
1.0417230 -0.6434440 -7.9011290 255 0 0
1.0405660 -0.6433670 -7.8959500 255 0 0
1.0143680 -0.6392820 -7.8130260 255 0 0
1.0148570 -0.6463890 -7.8143840 255 0 0
0.5153090 -0.5388300 -6.2303020 255 0 0
0.6962530 -0.5983290 -6.8038950 255 0 0
0.6946400 -0.6015220 -6.7995200 255 0 0
0.6625790 -0.6162400 -6.6972170 255 0 0
0.6539050 -0.6230440 -6.6702910 255 0 0
0.4766730 -0.5837850 -6.1075100 255 0 0
0.6262710 -0.6228170 -6.5811420 255 0 0
0.6367070 -0.6311040 -6.6160220 255 0 0
0.4713980 -0.5967250 -6.0898090 255 0 0
0.4660830 -0.6103360 -6.0736490 255 0 0
0.4629820 -0.6143980 -6.0644340 255 0 0
0.4632240 -0.6291920 -6.0643670 255 0 0
0.4630990 -0.6341780 -6.0647170 255 0 0
0.4631800 -0.6391080 -6.0646950 255 0 0
0.4632610 -0.6440380 -6.0646720 255 0 0
0.4672680 -0.6551570 -6.0781870 255 0 0
0.4699950 -0.6626050 -6.0855500 255 0 0
0.4789770 -0.6752100 -6.1139680 255 0 0
0.4805140 -0.6809400 -6.1200220 255 0 0
0.7406130 -0.5119760 -6.9426610 255 0 0
1.0283630 -0.5816540 -7.8562870 255 0 0
1.0237800 -0.5819900 -7.8414060 255 0 0
0.7248310 -0.5360000 -6.8923820 255 0 0
0.7230300 -0.5415950 -6.8861880 255 0 0
0.5364640 -0.5244370 -6.2959180 255 0 0
0.7047900 -0.5745420 -6.8292710 255 0 0
1.0442370 -0.6543760 -7.9066210 255 0 0
0.5136860 -0.5403850 -6.2229260 255 0 0
1.0158560 -0.6530910 -7.8148410 255 0 0
0.6776190 -0.5885020 -6.7432050 255 0 0
0.4959930 -0.5650370 -6.1675710 255 0 0
1.0106700 -0.6930080 -7.7998010 255 0 0
0.6617520 -0.6207270 -6.6920150 255 0 0
0.4756420 -0.5871290 -6.1019070 255 0 0
0.4657270 -0.6147790 -6.0697130 255 0 0
0.4634740 -0.6192220 -6.0636660 255 0 0
0.4635550 -0.6241520 -6.0636430 255 0 0
0.4658000 -0.6444910 -6.0703250 255 0 0
0.4698140 -0.6556180 -6.0838580 255 0 0
0.4698950 -0.6605580 -6.0838360 255 0 0
0.4685250 -0.6621050 -6.0796010 255 0 0
1.0368710 -0.8275640 -7.8826620 255 0 0
1.0511410 -0.8379280 -7.9289050 255 0 0
0.7295520 -0.5308420 -6.9046000 255 0 0
1.0342980 -0.5921100 -7.8714630 255 0 0
1.0228750 -0.5932580 -7.8371210 255 0 0
1.0221900 -0.5966980 -7.8340520 255 0 0
1.0361390 -0.6033220 -7.8772930 255 0 0
1.0186460 -0.6109120 -7.8221240 255 0 0
0.5340640 -0.5236290 -6.2862360 255 0 0
1.0168550 -0.6253990 -7.8166740 255 0 0
0.7066660 -0.5769050 -6.8318410 255 0 0
0.7033070 -0.5772010 -6.8220950 255 0 0
0.5121870 -0.5423280 -6.2159170 255 0 0
0.6766930 -0.5890430 -6.7369910 255 0 0
0.6847550 -0.5923960 -6.7637130 255 0 0
0.6894080 -0.6055660 -6.7783500 255 0 0
1.0169480 -0.6844260 -7.8177030 255 0 0
0.4945330 -0.5670430 -6.1606940 255 0 0
0.6599450 -0.6222770 -6.6839190 255 0 0
0.4745560 -0.5931480 -6.0966100 255 0 0
0.4715740 -0.5984830 -6.0880830 255 0 0
0.4672490 -0.6153840 -6.0733360 255 0 0
0.4660140 -0.6196590 -6.0693170 255 0 0
0.4660940 -0.6245930 -6.0692950 255 0 0
0.4661750 -0.6295260 -6.0692730 255 0 0
0.4682170 -0.6499380 -6.0763370 255 0 0
0.4724870 -0.6560450 -6.0893110 255 0 0
0.4724440 -0.6610230 -6.0895140 255 0 0
1.0399730 -0.8282410 -7.8895800 255 0 0
0.4743640 -0.6685050 -6.0961110 255 0 0
1.0264980 -0.5812860 -7.8457260 255 0 0
1.0255720 -0.5868290 -7.8409500 255 0 0
1.0274520 -0.5873990 -7.8470400 255 0 0
1.0254600 -0.5934060 -7.8402920 255 0 0
1.0229950 -0.5997830 -7.8343850 255 0 0
0.5581350 -0.5164400 -6.3598000 255 0 0
1.0190950 -0.6167630 -7.8209270 255 0 0
0.7131830 -0.5599420 -6.8509870 255 0 0
0.5322120 -0.5245350 -6.2781720 255 0 0
1.0176000 -0.6322920 -7.8175830 255 0 0
1.0180900 -0.6393950 -7.8189430 255 0 0
1.0440780 -0.6480120 -7.9003600 255 0 0
0.7020000 -0.5803640 -6.8154420 255 0 0
0.5109800 -0.5452010 -6.2097700 255 0 0
0.6779290 -0.5862970 -6.7398140 255 0 0
0.5065820 -0.5520560 -6.1960860 255 0 0
0.6755000 -0.5924690 -6.7307040 255 0 0
1.0143310 -0.6931890 -7.8058460 255 0 0
0.4935150 -0.5704760 -6.1551150 255 0 0
0.6125440 -0.6102190 -6.5319460 255 0 0
0.6579180 -0.6231620 -6.6751810 255 0 0
0.4725900 -0.6013870 -6.0877580 255 0 0
0.4663790 -0.6344260 -6.0690260 255 0 0
0.4663360 -0.6393910 -6.0692280 255 0 0
0.4692140 -0.6567320 -6.0787650 255 0 0
0.7365580 -0.5120680 -6.9233980 255 0 0
1.0324250 -0.5860100 -7.8603870 255 0 0
1.0224140 -0.6052930 -7.8292030 255 0 0
1.0195620 -0.6226060 -7.8196750 255 0 0
0.5310870 -0.5277250 -6.2722470 255 0 0
0.7016900 -0.5864320 -6.8117420 255 0 0
1.0174690 -0.6593050 -7.8142150 255 0 0
0.5096880 -0.5477950 -6.2033750 255 0 0
0.6813540 -0.5880590 -6.7490210 255 0 0
0.4914720 -0.5705740 -6.1465310 255 0 0
0.6216050 -0.6055500 -6.5585520 255 0 0
0.4792470 -0.5880720 -6.1072350 255 0 0
0.6411250 -0.6297850 -6.6213470 255 0 0
0.4776000 -0.5933280 -6.1015500 255 0 0
0.4713540 -0.6035620 -6.0829510 255 0 0
0.4733310 -0.6626800 -6.0895710 255 0 0
1.0434700 -0.8283470 -7.8960740 255 0 0
0.4787410 -0.6744130 -6.1066910 255 0 0
0.7320510 -0.5273220 -6.9067820 255 0 0
1.0312690 -0.5859370 -7.8552270 255 0 0
1.0363110 -0.5968400 -7.8708850 255 0 0
1.0382390 -0.6080100 -7.8766670 255 0 0
0.5679820 -0.5170970 -6.3858450 255 0 0
0.5719790 -0.5203740 -6.3994830 255 0 0
0.5542330 -0.5189500 -6.3437310 255 0 0
1.0400000 -0.6192780 -7.8825450 255 0 0
0.5299630 -0.5309130 -6.2663260 255 0 0
0.7110920 -0.5710340 -6.8391210 255 0 0
1.0196010 -0.6456860 -7.8184980 255 0 0
1.0185580 -0.6469930 -7.8136770 255 0 0
0.5086940 -0.5513380 -6.1978550 255 0 0
1.0192660 -0.6728920 -7.8154890 255 0 0
0.6743090 -0.5958930 -6.7244210 255 0 0
0.6931510 -0.6051210 -6.7841800 255 0 0
0.4903090 -0.5735250 -6.1405330 255 0 0
0.6266530 -0.6180220 -6.5724470 255 0 0
0.4708290 -0.6087790 -6.0778740 255 0 0
0.4711470 -0.6105990 -6.0803120 255 0 0
0.4691400 -0.6133430 -6.0726110 255 0 0
0.4692980 -0.6149430 -6.0735030 255 0 0
0.4691730 -0.6199340 -6.0738540 255 0 0
0.4692540 -0.6248690 -6.0738320 255 0 0
0.4693340 -0.6298050 -6.0738090 255 0 0
0.4756130 -0.6613150 -6.0940700 255 0 0
1.0511990 -0.8326670 -7.9185490 255 0 0
0.4829450 -0.6751410 -6.1173540 255 0 0
0.4862770 -0.6841960 -6.1270630 255 0 0
0.7349580 -0.5222720 -6.9136340 255 0 0
1.0384420 -0.5840130 -7.8735480 255 0 0
0.7292890 -0.5353440 -6.8962450 255 0 0
0.5706290 -0.5179310 -6.3922350 255 0 0
0.7175710 -0.5541740 -6.8583800 255 0 0
0.5281160 -0.5318120 -6.2582870 255 0 0
1.0464310 -0.6525780 -7.8995910 255 0 0
1.0208930 -0.6521540 -7.8184400 255 0 0
0.6850880 -0.5876160 -6.7548370 255 0 0
0.7013530 -0.5924210 -6.8079610 255 0 0
1.0193880 -0.6652730 -7.8130460 255 0 0
0.6731540 -0.5994220 -6.7182500 255 0 0
1.0230410 -0.6872520 -7.8248670 255 0 0
0.4887960 -0.5753320 -6.1335120 255 0 0
0.6162620 -0.6097790 -6.5377350 255 0 0
0.4755970 -0.5967260 -6.0924860 255 0 0
0.4708830 -0.6031810 -6.0779700 255 0 0
0.4736570 -0.6060760 -6.0859330 255 0 0
0.4729730 -0.6088670 -6.0841620 255 0 0
0.4697850 -0.6346400 -6.0731130 255 0 0
0.4698650 -0.6395730 -6.0730910 255 0 0
0.4695760 -0.6446080 -6.0737410 255 0 0
0.4717910 -0.6501120 -6.0801320 255 0 0
1.0469680 -0.8284530 -7.9025680 255 0 0
0.4782490 -0.6667280 -6.0997390 255 0 0
0.4779740 -0.6685170 -6.0998570 255 0 0
1.0355480 -0.8334710 -7.8647250 255 0 0
1.0316460 -0.8370000 -7.8533900 255 0 0
1.0277770 -0.8404330 -7.8419510 255 0 0
0.7376620 -0.5172660 -6.9209730 255 0 0
1.0359280 -0.5906430 -7.8647870 255 0 0
1.0299090 -0.5929350 -7.8449180 255 0 0
0.7280010 -0.5405740 -6.8893340 255 0 0
0.5647420 -0.5128950 -6.3717350 255 0 0
1.0238770 -0.6108210 -7.8249760 255 0 0
0.5538980 -0.5202990 -6.3375810 255 0 0
0.5507620 -0.5216410 -6.3282570 255 0 0
1.0417930 -0.6241230 -7.8820850 255 0 0
1.0417370 -0.6356680 -7.8831600 255 0 0
1.0229620 -0.6385910 -7.8228310 255 0 0
0.5261820 -0.5324250 -6.2499950 255 0 0
1.0457100 -0.6465060 -7.8936480 255 0 0
0.5073740 -0.5538330 -6.1913820 255 0 0
0.6968940 -0.6046770 -6.7900090 255 0 0
0.6720360 -0.6030580 -6.7121900 255 0 0
0.6252670 -0.6051810 -6.5643840 255 0 0
0.6059080 -0.6015630 -6.5031440 255 0 0
0.6192960 -0.6102080 -6.5440010 255 0 0
0.4879860 -0.5794210 -6.1285510 255 0 0
0.6470350 -0.6205190 -6.6333940 255 0 0
0.4734360 -0.6081920 -6.0824760 255 0 0
0.4743130 -0.6108700 -6.0848590 255 0 0
0.4720500 -0.6153230 -6.0787920 255 0 0
0.4765610 -0.6560840 -6.0922120 255 0 0
0.4767930 -0.6627260 -6.0934630 255 0 0
1.0500710 -0.8291300 -7.9094900 255 0 0
1.0363590 -0.8296230 -7.8650630 255 0 0
0.4846560 -0.6784610 -6.1194620 255 0 0
1.0300740 -0.5852350 -7.8443090 255 0 0
1.0389090 -0.5898920 -7.8722810 255 0 0
0.7331540 -0.5325040 -6.9043680 255 0 0
1.0281160 -0.5987820 -7.8378150 255 0 0
1.0383470 -0.6015570 -7.8702940 255 0 0
0.7283160 -0.5432790 -6.8876400 255 0 0
0.5673860 -0.5137280 -6.3781160 255 0 0
0.7250690 -0.5460210 -6.8768960 255 0 0
0.5756340 -0.5199630 -6.4052170 255 0 0
1.0243130 -0.6166760 -7.8238160 255 0 0
0.5486470 -0.5217900 -6.3194100 255 0 0
1.0223590 -0.6240900 -7.8194300 255 0 0
0.7155190 -0.5651640 -6.8464010 255 0 0
1.0228510 -0.6311840 -7.8207910 255 0 0
0.5248510 -0.5349390 -6.2434760 255 0 0
1.0479450 -0.6575740 -7.8992840 255 0 0
0.5060550 -0.5563250 -6.1849160 255 0 0
0.6710610 -0.6071140 -6.7065530 255 0 0
0.6129380 -0.6054470 -6.5233160 255 0 0
0.6614300 -0.6241240 -6.6751910 255 0 0
0.4868250 -0.5823650 -6.1225660 255 0 0
0.4724110 -0.6133690 -6.0772790 255 0 0
0.4723360 -0.6202080 -6.0783950 255 0 0
0.4724160 -0.6251460 -6.0783720 255 0 0
0.4724960 -0.6300830 -6.0783500 255 0 0
0.4727380 -0.6448930 -6.0782820 255 0 0
0.4787850 -0.6616080 -6.0986300 255 0 0
0.4825250 -0.6691590 -6.1101380 255 0 0
1.0323430 -0.5847530 -7.8488650 255 0 0
0.5639890 -0.5111190 -6.3660000 255 0 0
0.5660990 -0.5167590 -6.3730500 255 0 0
1.0244770 -0.6226180 -7.8234670 255 0 0
0.5473000 -0.5243260 -6.3128210 255 0 0
0.7137880 -0.5665720 -6.8400090 255 0 0
1.0438300 -0.6403630 -7.8825360 255 0 0
1.0246000 -0.6447790 -7.8221600 255 0 0
0.5232210 -0.5364980 -6.2360840 255 0 0
1.0229150 -0.6580390 -7.8170910 255 0 0
0.5045890 -0.5583390 -6.1780220 255 0 0
1.0243550 -0.6794420 -7.8212420 255 0 0
0.6701600 -0.6113880 -6.7011350 255 0 0
0.6096200 -0.6011230 -6.5089240 255 0 0
0.6224680 -0.6104630 -6.5501730 255 0 0
0.4847910 -0.5824520 -6.1140290 255 0 0
0.4834510 -0.5874600 -6.1108750 255 0 0
0.6312400 -0.6268180 -6.5782800 255 0 0
0.4819570 -0.5926100 -6.1050150 255 0 0
0.4769110 -0.6013550 -6.0902080 255 0 0
1.0398540 -0.8297280 -7.8715510 255 0 0
0.7417710 -0.5119010 -6.9250660 255 0 0
1.0339210 -0.5928070 -7.8503200 255 0 0
1.0382760 -0.5952020 -7.8640270 255 0 0
1.0280850 -0.6050610 -7.8307450 255 0 0
0.5789720 -0.5199470 -6.4111610 255 0 0
0.5595140 -0.5166790 -6.3499670 255 0 0
0.5581880 -0.5189100 -6.3452560 255 0 0
0.5453420 -0.5249480 -6.3044470 255 0 0
0.7124060 -0.5695400 -6.8331360 255 0 0
0.7116890 -0.5738230 -6.8308840 255 0 0
0.5217420 -0.5385320 -6.2291380 255 0 0
1.0494640 -0.6625680 -7.8989750 255 0 0
0.7035450 -0.5962720 -6.8050730 255 0 0
0.5037150 -0.5622540 -6.1728630 255 0 0
1.0206830 -0.6911820 -7.8071390 255 0 0
1.0249200 -0.6947920 -7.8222890 255 0 0
0.6691460 -0.6153220 -6.6953850 255 0 0
0.4795920 -0.5967780 -6.0955390 255 0 0
0.4804980 -0.5977340 -6.0991190 255 0 0
0.4754200 -0.6155420 -6.0829620 255 0 0
0.4755010 -0.6204820 -6.0829390 255 0 0
0.4755810 -0.6254220 -6.0829170 255 0 0
1.0431520 -0.8301190 -7.8782520 255 0 0
1.0453980 -0.8320340 -7.8860850 255 0 0
0.4882530 -0.6786430 -6.1232870 255 0 0
0.4902880 -0.6842610 -6.1301330 255 0 0
0.7368840 -0.5272480 -6.9093070 255 0 0
1.0375570 -0.5891780 -7.8581190 255 0 0
0.7340030 -0.5345060 -6.8997490 255 0 0
1.0406900 -0.6061190 -7.8695360 255 0 0
1.0305160 -0.6043570 -7.8357910 255 0 0
0.7279940 -0.5448830 -6.8806370 255 0 0
1.0426220 -0.6115450 -7.8747940 255 0 0
0.5510580 -0.5142210 -6.3201460 255 0 0
0.5429310 -0.5241390 -6.2947470 255 0 0
0.7110950 -0.5727080 -6.8264760 255 0 0
1.0465030 -0.6454300 -7.8874010 255 0 0
0.5198160 -0.5391360 -6.2208870 255 0 0
1.0260270 -0.6511390 -7.8218660 255 0 0
1.0248530 -0.6715090 -7.8181210 255 0 0
1.0207020 -0.6836360 -7.8048810 255 0 0
0.5025460 -0.5652150 -6.1668440 255 0 0
0.6678260 -0.6183420 -6.6887350 255 0 0
0.6651380 -0.6214920 -6.6821820 255 0 0
0.6515470 -0.6190780 -6.6386430 255 0 0
0.6447900 -0.6283220 -6.6164430 255 0 0
0.6342830 -0.6272510 -6.5845680 255 0 0
0.6446810 -0.6319430 -6.6169280 255 0 0
0.6413690 -0.6311730 -6.6049000 255 0 0
0.4776360 -0.6061340 -6.0890050 255 0 0
0.4758670 -0.6303070 -6.0825190 255 0 0
0.4736040 -0.6347430 -6.0764560 255 0 0
0.4736840 -0.6396770 -6.0764330 255 0 0
0.4758600 -0.6501500 -6.0830280 255 0 0
0.4801430 -0.6562600 -6.0960170 255 0 0
0.4806280 -0.6626860 -6.0969700 255 0 0
0.4822870 -0.6683680 -6.1028700 255 0 0
0.4862210 -0.6730340 -6.1164530 255 0 0
0.7397940 -0.5221970 -6.9161600 255 0 0
1.0327270 -0.5981820 -7.8421490 255 0 0
0.7327140 -0.5397350 -6.8928370 255 0 0
0.7201300 -0.5588000 -6.8531410 255 0 0
0.5405250 -0.5233300 -6.2850660 255 0 0
0.7099610 -0.5763820 -6.8203370 255 0 0
1.0493170 -0.6561950 -7.8927150 255 0 0
0.5181170 -0.5404520 -6.2133040 255 0 0
1.0248480 -0.6639940 -7.8158980 255 0 0
0.6833760 -0.5884450 -6.7354700 255 0 0
0.6927880 -0.5968410 -6.7671480 255 0 0
0.5016310 -0.5689900 -6.1615680 255 0 0
0.6663710 -0.6209540 -6.6816910 255 0 0
0.6585570 -0.6231210 -6.6591120 255 0 0
0.6309340 -0.6228930 -6.5700700 255 0 0
0.6373280 -0.6276830 -6.5908570 255 0 0
0.4781390 -0.6109680 -6.0882090 255 0 0
0.4763580 -0.6351350 -6.0817470 255 0 0
0.4785340 -0.6505730 -6.0884780 255 0 0
1.0492890 -0.8315690 -7.8921520 255 0 0
1.0563630 -0.8368440 -7.9153280 255 0 0
1.0589420 -0.8382870 -7.9228250 255 0 0
0.4889940 -0.6734480 -6.1217920 255 0 0
1.0345270 -0.8414980 -7.8469510 255 0 0
0.7428310 -0.5171080 -6.9227360 255 0 0
1.0358030 -0.5887530 -7.8475070 255 0 0
1.0403040 -0.5999190 -7.8634410 255 0 0
1.0353340 -0.5999080 -7.8459840 255 0 0
0.5651570 -0.5150880 -6.3600410 255 0 0
0.7267810 -0.5491560 -6.8709080 255 0 0
1.0292360 -0.6166840 -7.8275790 255 0 0
1.0293470 -0.6226440 -7.8273860 255 0 0
0.5384260 -0.5234750 -6.2762920 255 0 0
1.0281010 -0.6300770 -7.8239990 255 0 0
1.0288500 -0.6369720 -7.8249100 255 0 0
1.0461810 -0.6449250 -7.8817700 255 0 0
1.0497330 -0.6502120 -7.8919610 255 0 0
0.7088260 -0.5800540 -6.8142010 255 0 0
0.7022170 -0.6021940 -6.7946360 255 0 0
1.0258780 -0.6921190 -7.8155590 255 0 0
1.0291310 -0.6975910 -7.8259270 255 0 0
0.5009960 -0.5736710 -6.1571150 255 0 0
0.6112560 -0.6018370 -6.5074840 255 0 0
0.6265390 -0.6095750 -6.5557180 255 0 0
0.4912010 -0.5825540 -6.1264650 255 0 0
0.6484580 -0.6247330 -6.6245800 255 0 0
0.4871410 -0.5871990 -6.1150950 255 0 0
0.4787110 -0.6157820 -6.0872860 255 0 0
0.4768480 -0.6399600 -6.0809750 255 0 0
0.4765180 -0.6450090 -6.0817020 255 0 0
0.4808840 -0.6510880 -6.0945350 255 0 0
0.4865260 -0.6690820 -6.1134840 255 0 0
1.0386320 -0.8373150 -7.8574870 255 0 0
0.4912350 -0.6790020 -6.1282550 255 0 0
0.7381920 -0.5323760 -6.9064150 255 0 0
1.0393470 -0.5940130 -7.8576620 255 0 0
1.0367540 -0.5980440 -7.8475240 255 0 0
1.0325440 -0.6052180 -7.8359160 255 0 0
1.0434480 -0.6104700 -7.8685510 255 0 0
1.0358610 -0.6117510 -7.8446790 255 0 0
1.0449700 -0.6161030 -7.8740320 255 0 0
0.7254630 -0.5523390 -6.8642210 255 0 0
0.7244180 -0.5532950 -6.8608210 255 0 0
1.0454390 -0.6273630 -7.8748140 255 0 0
1.0297450 -0.6285070 -7.8263340 255 0 0
0.5370870 -0.5259990 -6.2697480 255 0 0
1.0297680 -0.6437360 -7.8255210 255 0 0
1.0487980 -0.6500200 -7.8866650 255 0 0
1.0510930 -0.6610540 -7.8922640 255 0 0
0.7085670 -0.5862670 -6.8106480 255 0 0
0.5172500 -0.5444140 -6.2081580 255 0 0
0.6850140 -0.5870620 -6.7376900 255 0 0
0.6820830 -0.5915820 -6.7288950 255 0 0
0.6295990 -0.6099730 -6.5619700 255 0 0
0.6558270 -0.6179330 -6.6440580 255 0 0
0.6622910 -0.6226790 -6.6649280 255 0 0
0.6451000 -0.6307310 -6.6107100 255 0 0
0.4812110 -0.6013290 -6.0926960 255 0 0
0.4788740 -0.6207030 -6.0871120 255 0 0
0.4790570 -0.6256170 -6.0869020 255 0 0
0.4791370 -0.6305580 -6.0868790 255 0 0
0.4791730 -0.6355110 -6.0869370 255 0 0
0.4832350 -0.6565730 -6.1007290 255 0 0
0.4816880 -0.6572230 -6.0957430 255 0 0
0.4875020 -0.6676920 -6.1139660 255 0 0
1.0551010 -0.8334950 -7.9064150 255 0 0
1.0429050 -0.8325830 -7.8673650 255 0 0
0.7462430 -0.5119190 -6.9284570 255 0 0
1.0391640 -0.5952480 -7.8526680 255 0 0
1.0352540 -0.6036570 -7.8398980 255 0 0
1.0362020 -0.6056360 -7.8435130 255 0 0
1.0330100 -0.6110680 -7.8346600 255 0 0
0.5602700 -0.5172310 -6.3412130 255 0 0
1.0462160 -0.6327210 -7.8749080 255 0 0
0.5355990 -0.5280440 -6.2627680 255 0 0
1.0498140 -0.6552670 -7.8866310 255 0 0
0.5235060 -0.5412470 -6.2261060 255 0 0
1.0499350 -0.6609750 -7.8870880 255 0 0
1.0285320 -0.6566330 -7.8196580 255 0 0
0.5162880 -0.5480680 -6.2027350 255 0 0
0.6811340 -0.5957280 -6.7233340 255 0 0
0.4993380 -0.5750370 -6.1496710 255 0 0
0.6155340 -0.6072040 -6.5163280 255 0 0
0.4835880 -0.5968310 -6.0985930 255 0 0
0.4815560 -0.6111730 -6.0923110 255 0 0
0.4795210 -0.6453400 -6.0865480 255 0 0
0.4860680 -0.6631180 -6.1063140 255 0 0
0.7389730 -0.5334860 -6.9028930 255 0 0
1.0375920 -0.5935870 -7.8470500 255 0 0
1.0402760 -0.5983070 -7.8538080 255 0 0
0.7349510 -0.5429850 -6.8907260 255 0 0
0.7317090 -0.5457010 -6.8799520 255 0 0
0.5608320 -0.5179480 -6.3412200 255 0 0
1.0334750 -0.6169170 -7.8334050 255 0 0
1.0467610 -0.6209420 -7.8735730 255 0 0
0.7248540 -0.5575470 -6.8596240 255 0 0
0.5342620 -0.5305620 -6.2562370 255 0 0
0.6855030 -0.5864920 -6.7335840 255 0 0
0.7082390 -0.5922770 -6.8068880 255 0 0
0.5152620 -0.5515170 -6.1971290 255 0 0
0.6931150 -0.5920570 -6.7582690 255 0 0
1.0305960 -0.6775260 -7.8227130 255 0 0
0.6798920 -0.5990050 -6.7169110 255 0 0
1.0310470 -0.6840720 -7.8246140 255 0 0
1.0360210 -0.7018570 -7.8401530 255 0 0
1.0326180 -0.7022560 -7.8303660 255 0 0
0.4975420 -0.5759490 -6.1418290 255 0 0
0.6586340 -0.6186750 -6.6505370 255 0 0
0.4869960 -0.5914260 -6.1077100 255 0 0
0.4816870 -0.6061720 -6.0919480 255 0 0
0.4847170 -0.6573670 -6.1000890 255 0 0
0.4845870 -0.6626170 -6.1003480 255 0 0
1.0582600 -0.8385520 -7.9104900 255 0 0
0.7446310 -0.5221230 -6.9186860 255 0 0
1.0361100 -0.6029750 -7.8390100 255 0 0
1.0338580 -0.6227880 -7.8323910 255 0 0
0.5326250 -0.5321270 -6.2488280 255 0 0
1.0491360 -0.6491760 -7.8806740 255 0 0
1.0314490 -0.6498910 -7.8247750 255 0 0
1.0271570 -0.6625990 -7.8096900 255 0 0
1.0305470 -0.6700380 -7.8205580 255 0 0
0.5144350 -0.5555980 -6.1921040 255 0 0
0.7067370 -0.6001310 -6.7985240 255 0 0
1.0333860 -0.6798880 -7.8287680 255 0 0
0.6786990 -0.6024240 -6.7106360 255 0 0
1.0397150 -0.6955140 -7.8492720 255 0 0
1.0362760 -0.6959320 -7.8395110 255 0 0
1.0354640 -0.7072550 -7.8351480 255 0 0
0.4961250 -0.5780810 -6.1350970 255 0 0
0.4910900 -0.5867620 -6.1190270 255 0 0
0.4865600 -0.5971480 -6.1035340 255 0 0
0.4844880 -0.6015680 -6.0970640 255 0 0
0.4821280 -0.6159890 -6.0913870 255 0 0
0.4802200 -0.6401870 -6.0851450 255 0 0
0.4844680 -0.6512620 -6.0983410 255 0 0
0.4868170 -0.6577230 -6.1054080 255 0 0
0.4889340 -0.6623130 -6.1112010 255 0 0
0.4930030 -0.6735120 -6.1248590 255 0 0
0.7475480 -0.5170650 -6.9255500 255 0 0
0.7423330 -0.5270150 -6.9104010 255 0 0
1.0428040 -0.5980100 -7.8563010 255 0 0
1.0393820 -0.5984200 -7.8465930 255 0 0
1.0387720 -0.6049140 -7.8442670 255 0 0
1.0444530 -0.6093050 -7.8622160 255 0 0
0.5835340 -0.5243350 -6.4085930 255 0 0
0.5600460 -0.5200650 -6.3345880 255 0 0
0.5545140 -0.5195810 -6.3164400 255 0 0
0.7228050 -0.5631160 -6.8475660 255 0 0
1.0332460 -0.6290500 -7.8273840 255 0 0
1.0313380 -0.6459480 -7.8219720 255 0 0
1.0503490 -0.6543180 -7.8805300 255 0 0
1.0329720 -0.6579090 -7.8247670 255 0 0
1.0306610 -0.6624270 -7.8181160 255 0 0
0.6897090 -0.5877240 -6.7435940 255 0 0
0.5127660 -0.5569790 -6.1846230 255 0 0
0.6775070 -0.6058410 -6.7043650 255 0 0
1.0385550 -0.6954320 -7.8440900 255 0 0
1.0389530 -0.7010160 -7.8443820 255 0 0
0.6209230 -0.6098660 -6.5267300 255 0 0
0.6252790 -0.6128960 -6.5404380 255 0 0
0.4958410 -0.5838860 -6.1316720 255 0 0
0.4958330 -0.5844800 -6.1312180 255 0 0
0.4826300 -0.6208210 -6.0905910 255 0 0
0.4828420 -0.6257280 -6.0903270 255 0 0
0.4828550 -0.6455800 -6.0907990 255 0 0
0.4914330 -0.6677760 -6.1171640 255 0 0
1.0459340 -0.8325670 -7.8673580 255 0 0
0.7430220 -0.5323010 -6.9089380 255 0 0
1.0438040 -0.5943560 -7.8576110 255 0 0
1.0426860 -0.6010940 -7.8550840 255 0 0
1.0437590 -0.6032620 -7.8562950 255 0 0
0.5709820 -0.5102760 -6.3667720 255 0 0
0.5697350 -0.5107650 -6.3618150 255 0 0
1.0465940 -0.6146220 -7.8673540 255 0 0
0.5821970 -0.5218660 -6.4013270 255 0 0
0.5523980 -0.5197300 -6.3076150 255 0 0
1.0361930 -0.6222900 -7.8324320 255 0 0
1.0348050 -0.6284700 -7.8296870 255 0 0
0.7199650 -0.5643680 -6.8368280 255 0 0
1.0487980 -0.6371590 -7.8740170 255 0 0
0.5311400 -0.5341650 -6.2418690 255 0 0
1.0510040 -0.6597500 -7.8806930 255 0 0
0.5217030 -0.5443860 -6.2119190 255 0 0
0.5110730 -0.5582800 -6.1770790 255 0 0
1.0378350 -0.6893340 -7.8381670 255 0 0
1.0279790 -0.6884020 -7.8067470 255 0 0
1.0326780 -0.6899590 -7.8235300 255 0 0
0.6765720 -0.6100150 -6.6988510 255 0 0
1.0317480 -0.6955440 -7.8187270 255 0 0
1.0298360 -0.6958520 -7.8139480 255 0 0
0.4975960 -0.5793200 -6.1352050 255 0 0
0.6283820 -0.6132390 -6.5466550 255 0 0
0.4937970 -0.5839720 -6.1231180 255 0 0
0.4902090 -0.5914920 -6.1124660 255 0 0
0.4851160 -0.6113420 -6.0961590 255 0 0
0.4830240 -0.6306430 -6.0901160 255 0 0
0.4854130 -0.6460340 -6.0964820 255 0 0
0.4873140 -0.6566120 -6.1036340 255 0 0
0.4894110 -0.6631910 -6.1103430 255 0 0
1.0492970 -0.8328630 -7.8739850 255 0 0
0.5749020 -0.5082810 -6.3770810 255 0 0
1.0411710 -0.6032520 -7.8461360 255 0 0
0.5665010 -0.5158370 -6.3507390 255 0 0
1.0387860 -0.6158130 -7.8381120 255 0 0
0.5499800 -0.5189260 -6.2979110 255 0 0
0.7190620 -0.5687220 -6.8313750 255 0 0
0.5297470 -0.5364860 -6.2351810 255 0 0
1.0337110 -0.6555780 -7.8229970 255 0 0
1.0546260 -0.6606190 -7.8900070 255 0 0
0.7042420 -0.6056380 -6.7853050 255 0 0
0.5100500 -0.5617190 -6.1714880 255 0 0
0.6759150 -0.6150130 -6.6941560 255 0 0
0.6310080 -0.6141900 -6.5532080 255 0 0
0.6544840 -0.6213480 -6.6287400 255 0 0
0.6694530 -0.6263530 -6.6744980 255 0 0
0.4896610 -0.5924570 -6.1081240 255 0 0
0.4890000 -0.5964440 -6.1062840 255 0 0
0.4856950 -0.6062230 -6.0949730 255 0 0
0.4834320 -0.6354960 -6.0894920 255 0 0
1.0518720 -0.8343020 -7.8814610 255 0 0
1.0458180 -0.8369740 -7.8607890 255 0 0
0.7434300 -0.5328300 -6.9067550 255 0 0
0.5739430 -0.5120810 -6.3716200 255 0 0
1.0450490 -0.6083470 -7.8561090 255 0 0
0.5789430 -0.5176600 -6.3872000 255 0 0
1.0479280 -0.6126660 -7.8642860 255 0 0
0.5480240 -0.5195510 -6.2895630 255 0 0
1.0505900 -0.6420010 -7.8735580 255 0 0
0.7185590 -0.5742270 -6.8270970 255 0 0
1.0504010 -0.6478560 -7.8741800 255 0 0
0.5284450 -0.5390900 -6.2287630 255 0 0
1.0545120 -0.6643870 -7.8850980 255 0 0
1.0447790 -0.6653490 -7.8555870 255 0 0
0.6934400 -0.5872810 -6.7494050 255 0 0
0.7008210 -0.6012860 -6.7705820 255 0 0
1.0359560 -0.6831600 -7.8270740 255 0 0
1.0455430 -0.6880630 -7.8572200 255 0 0
1.0406570 -0.6885510 -7.8424490 255 0 0
1.0384160 -0.6890750 -7.8357300 255 0 0
1.0361930 -0.6946030 -7.8279480 255 0 0
0.6142780 -0.6012170 -6.4979620 255 0 0
0.6246380 -0.6094260 -6.5325140 255 0 0
0.6716950 -0.6214870 -6.6792940 255 0 0
0.6512650 -0.6271680 -6.6147790 255 0 0
0.6511420 -0.6308260 -6.6149200 255 0 0
0.4880740 -0.6017280 -6.1008720 255 0 0
0.4859570 -0.6160880 -6.0947380 255 0 0
0.4880980 -0.6514240 -6.1020670 255 0 0
1.0552370 -0.8345980 -7.8880910 255 0 0
1.0599020 -0.8369150 -7.9037140 255 0 0
0.7514530 -0.5117510 -6.9301230 255 0 0
1.0441160 -0.6081600 -7.8508330 255 0 0
0.5739010 -0.5159540 -6.3703700 255 0 0
0.5570480 -0.5137660 -6.3169520 255 0 0
1.0471050 -0.6137040 -7.8612900 255 0 0
0.5880840 -0.5228110 -6.4137320 255 0 0
0.5466800 -0.5220790 -6.2830060 255 0 0
1.0381890 -0.6257360 -7.8324300 255 0 0
1.0363700 -0.6415380 -7.8263170 255 0 0
